# .PCD v0.7 - Point Cloud Data file format
VERSION 0.7
FIELDS x y z
SIZE 4 4 4
TYPE F F F
COUNT 1 1 1
WIDTH 1370
HEIGHT 1
VIEWPOINT 0 0 0 1 0 0 0
POINTS 1370
DATA ascii
-0.021291429 0.060171433 0.97200006
-0.0196 0.060666665 0.98000002
-0.017733334 0.060666665 0.98000002
-0.015915239 0.060852386 0.98300004
-0.014042858 0.060852386 0.98300004
-0.012170476 0.060852386 0.98300004
-0.010298096 0.060852386 0.98300004
-0.0084428573 0.060976192 0.98500007
-0.006566667 0.060976192 0.98500007
-0.0046904762 0.060976192 0.98500007
-0.0028228574 0.061161906 0.98800004
-0.00094095239 0.061161906 0.98800004
-0.29362002 0.053025715 0.83100003
-0.2913343 0.052898098 0.82900006
-0.28905618 0.052770477 0.82700002
-0.28609049 0.052515239 0.82300001
-0.28314003 0.052260004 0.81900007
-0.2808924 0.052132383 0.81700003
-0.2786524 0.052004766 0.81500006
-0.27710003 0.052004766 0.81500006
-0.27520952 0.051940955 0.81400001
-0.27298668 0.051813334 0.81200004
-0.27144003 0.051813334 0.81200004
-0.26922861 0.051685717 0.81000006
-0.26768571 0.051685717 0.81000006
-0.26548573 0.051558096 0.80800003
-0.26394668 0.051558096 0.80800003
-0.26175809 0.051430479 0.80600005
-0.26022285 0.051430479 0.80600005
-0.25868762 0.051430479 0.80600005
-0.25651428 0.051302858 0.80400002
-0.25498286 0.051302858 0.80400002
-0.25345141 0.051302858 0.80400002
-0.25192001 0.051302858 0.80400002
-0.25038859 0.051302858 0.80400002
-0.24823812 0.05117524 0.80200005
-0.24671049 0.05117524 0.80200005
-0.24518287 0.05117524 0.80200005
-0.24365525 0.05117524 0.80200005
-0.24212763 0.05117524 0.80200005
-0.24060002 0.05117524 0.80200005
-0.2390724 0.05117524 0.80200005
-0.23754478 0.05117524 0.80200005
-0.23601715 0.05117524 0.80200005
-0.23448955 0.05117524 0.80200005
-0.23296192 0.05117524 0.80200005
-0.2314343 0.05117524 0.80200005
-0.22990668 0.05117524 0.80200005
-0.22780952 0.051047619 0.80000001
-0.22685143 0.05117524 0.80200005
-0.22532381 0.05117524 0.80200005
-0.22435428 0.051302858 0.80400002
-0.22282286 0.051302858 0.80400002
-0.22294286 0.051685717 0.81000006
-0.22140001 0.051685717 0.81000006
-0.21985716 0.051685717 0.81000006
-0.21831429 0.051685717 0.81000006
-0.21730667 0.051813334 0.81200004
-0.21576001 0.051813334 0.81200004
-0.21421334 0.051813334 0.81200004
-0.21266666 0.051813334 0.81200004
-0.21112001 0.051813334 0.81200004
-0.20957334 0.051813334 0.81200004
-0.20853905 0.051940955 0.81400001
-0.20698857 0.051940955 0.81400001
-0.20619524 0.052132383 0.81700003
-0.20564096 0.052387621 0.82100004
-0.20407714 0.052387621 0.82100004
-0.20350002 0.05264286 0.82500005
-0.20192857 0.05264286 0.82500005
-0.20084286 0.052770477 0.82700002
-0.19926763 0.052770477 0.82700002
-0.19769239 0.052770477 0.82700002
-0.19611715 0.052770477 0.82700002
-0.19454192 0.052770477 0.82700002
-0.19296667 0.052770477 0.82700002
-0.19185428 0.052898098 0.82900006
-0.19027525 0.052898098 0.82900006
-0.18869621 0.052898098 0.82900006
-0.18802002 0.053153336 0.83300006
-0.18643335 0.053153336 0.83300006
-0.1861781 0.053536192 0.83900005
-0.18458 0.053536192 0.83900005
-0.18298191 0.053536192 0.83900005
-0.18181619 0.053663809 0.84100002
-0.18107143 0.053919047 0.84500003
-0.17946191 0.053919047 0.84500003
-0.17848381 0.054110479 0.84800005
-0.17812 0.054493334 0.85400003
-0.17649335 0.054493334 0.85400003
-0.17527619 0.054620955 0.85600007
-0.17324001 0.054493334 0.85400003
-0.17161334 0.054493334 0.85400003
-0.16998667 0.054493334 0.85400003
-0.16835999 0.054493334 0.85400003
-0.16673334 0.054493334 0.85400003
-0.16510667 0.054493334 0.85400003
-0.16348 0.054493334 0.85400003
-0.16185333 0.054493334 0.85400003
-0.16060191 0.054620955 0.85600007
-0.15934287 0.054748576 0.85800004
-0.15807618 0.054876193 0.86000001
-0.1564381 0.054876193 0.86000001
-0.15480001 0.054876193 0.86000001
-0.15316191 0.054876193 0.86000001
-0.15152381 0.054876193 0.86000001
-0.15023428 0.055003811 0.86200005
-0.14859238 0.055003811 0.86200005
-0.14695048 0.055003811 0.86200005
-0.14530857 0.055003811 0.86200005
-0.14416668 0.055195242 0.86500007
-0.14317811 0.055450477 0.86900002
-0.14152285 0.055450477 0.86900002
-0.13986762 0.055450477 0.86900002
-0.13853049 0.055578098 0.87100005
-0.13687144 0.055578098 0.87100005
-0.13521239 0.055578098 0.87100005
-0.13355334 0.055578098 0.87100005
-0.13189429 0.055578098 0.87100005
-0.13053429 0.055705715 0.87300003
-0.12887143 0.055705715 0.87300003
-0.12793714 0.05602476 0.87800002
-0.12626477 0.05602476 0.87800002
-0.12459239 0.05602476 0.87800002
-0.1232 0.056152385 0.88000005
-0.12152381 0.056152385 0.88000005
-0.12012 0.056280002 0.88200003
-0.11844 0.056280002 0.88200003
-0.11702476 0.056407623 0.88400006
-0.11534096 0.056407623 0.88400006
-0.11365715 0.056407623 0.88400006
-0.11197334 0.056407623 0.88400006
-0.11028953 0.056407623 0.88400006
-0.10860572 0.056407623 0.88400006
-0.10728476 0.056599047 0.88700002
-0.10559524 0.056599047 0.88700002
-0.10414001 0.056726668 0.88900006
-0.10267714 0.056854289 0.89100003
-0.10132001 0.057045717 0.89400005
-0.099617146 0.057045717 0.89400005
-0.098133333 0.057173334 0.89600003
-0.096426666 0.057173334 0.89600003
-0.094719999 0.057173334 0.89600003
-0.093220957 0.057300955 0.89800006
-0.091510482 0.057300955 0.89800006
-0.090300001 0.057620004 0.90300006
-0.088580005 0.057620004 0.90300006
-0.087052383 0.057747621 0.90500003
-0.085328571 0.057747621 0.90500003
-0.083881907 0.057939049 0.90800005
-0.082152382 0.057939049 0.90800005
-0.080422863 0.057939049 0.90800005
-0.078693338 0.057939049 0.90800005
-0.076963812 0.057939049 0.90800005
-0.075400002 0.058066666 0.91000003
-0.073666662 0.058066666 0.91000003
-0.071933329 0.058066666 0.91000003
-0.070431434 0.058258098 0.91300005
-0.068692386 0.058258098 0.91300005
-0.067100003 0.058385715 0.91500002
-0.065357141 0.058385715 0.91500002
-0.063614286 0.058385715 0.91500002
-0.062006667 0.058513336 0.91700006
-0.060260002 0.058513336 0.91700006
-0.05870476 0.05870476 0.92000002
-0.057385717 0.05915143 0.92700005
-0.055920001 0.059470478 0.93200004
-0.05431905 0.05966191 0.93500006
-0.052538101 0.05966191 0.93500006
-0.050865714 0.059789527 0.93700004
-0.049080957 0.059789527 0.93700004
-0.047447622 0.059980955 0.94000006
-0.045754284 0.060108572 0.94200003
-0.043960001 0.060108572 0.94200003
-0.042165715 0.060108572 0.94200003
-0.040371433 0.060108572 0.94200003
-0.038700003 0.0603 0.94500005
-0.036900003 0.0603 0.94500005
-0.035211433 0.060491435 0.94800007
-0.033581905 0.06081048 0.95300007
-0.032033335 0.061320953 0.96100003
-0.030265715 0.061448574 0.96300006
-0.02843143 0.061448574 0.96300006
-0.02668 0.061639998 0.96600002
-0.024840001 0.061639998 0.96600002
-0.023071429 0.061831433 0.96900004
-0.021291429 0.062022857 0.97200006
-0.019540003 0.06234191 0.97700006
-0.017733334 0.062533334 0.98000002
-0.015915239 0.062724762 0.98300004
-0.014042858 0.062724762 0.98300004
-0.012170476 0.062724762 0.98300004
-0.010298096 0.062724762 0.98300004
-0.0084428573 0.062852383 0.98500007
-0.006566667 0.062852383 0.98500007
-0.0047047618 0.06304381 0.98800004
-0.0028228574 0.06304381 0.98800004
-0.00094095239 0.06304381 0.98800004
-0.29362002 0.054608572 0.83100003
-0.29063141 0.054345712 0.82700002
-0.28835717 0.054214288 0.82500005
-0.28539523 0.053951431 0.82100004
-0.28314003 0.053820003 0.81900007
-0.2808924 0.053688571 0.81700003
-0.2786524 0.053557146 0.81500006
-0.27710003 0.053557146 0.81500006
-0.27520952 0.053491428 0.81400001
-0.27298668 0.053360004 0.81200004
-0.27077144 0.053228576 0.81000006
-0.26922861 0.053228576 0.81000006
-0.26702476 0.053097144 0.80800003
-0.26548573 0.053097144 0.80800003
-0.26329333 0.052965716 0.80600005
-0.26175809 0.052965716 0.80600005
-0.26022285 0.052965716 0.80600005
-0.2580457 0.052834287 0.80400002
-0.25651428 0.052834287 0.80400002
-0.25498286 0.052834287 0.80400002
-0.25345141 0.052834287 0.80400002
-0.25129333 0.052702863 0.80200005
-0.24976574 0.052702863 0.80200005
-0.24823812 0.052702863 0.80200005
-0.24671049 0.052702863 0.80200005
-0.24518287 0.052702863 0.80200005
-0.24365525 0.052702863 0.80200005
-0.24212763 0.052702863 0.80200005
-0.24060002 0.052702863 0.80200005
-0.2390724 0.052702863 0.80200005
-0.23695238 0.052571427 0.80000001
-0.23542857 0.052571427 0.80000001
-0.23390476 0.052571427 0.80000001
-0.23238096 0.052571427 0.80000001
-0.23085715 0.052571427 0.80000001
-0.22933334 0.052571427 0.80000001
-0.22780952 0.052571427 0.80000001
-0.22628571 0.052571427 0.80000001
-0.22532381 0.052702863 0.80200005
-0.22379619 0.052702863 0.80200005
-0.22282286 0.052834287 0.80400002
-0.22184192 0.052965716 0.80600005
-0.22085334 0.053097144 0.80800003
-0.21931429 0.053097144 0.80800003
-0.21777524 0.053097144 0.80800003
-0.21677144 0.053228576 0.81000006
-0.21522859 0.053228576 0.81000006
-0.21368572 0.053228576 0.81000006
-0.21266666 0.053360004 0.81200004
-0.21112001 0.053360004 0.81200004
-0.20957334 0.053360004 0.81200004
-0.20802668 0.053360004 0.81200004
-0.20698857 0.053491428 0.81400001
-0.20543809 0.053491428 0.81400001
-0.20463905 0.053688571 0.81700003
-0.20358002 0.053820003 0.81900007
-0.20300665 0.054082859 0.82300001
-0.20192857 0.054214288 0.82500005
-0.20035715 0.054214288 0.82500005
-0.19926763 0.054345712 0.82700002
-0.19769239 0.054345712 0.82700002
-0.19611715 0.054345712 0.82700002
-0.19454192 0.054345712 0.82700002
-0.19296667 0.054345712 0.82700002
-0.19139142 0.054345712 0.82700002
-0.19027525 0.054477148 0.82900006
-0.18869621 0.054477148 0.82900006
-0.18756858 0.054608572 0.83100003
-0.18643335 0.054740004 0.83300006
-0.18573429 0.055002857 0.83700001
-0.18458 0.055134289 0.83900005
-0.18298191 0.055134289 0.83900005
-0.18181619 0.055265717 0.84100002
-0.18107143 0.05552857 0.84500003
-0.17946191 0.05552857 0.84500003
-0.17890477 0.055857144 0.85000002
-0.17770287 0.055988576 0.85200006
-0.17608002 0.055988576 0.85200006
-0.17486666 0.056120001 0.85400003
-0.17324001 0.056120001 0.85400003
-0.17161334 0.056120001 0.85400003
-0.16998667 0.056120001 0.85400003
-0.16796573 0.055988576 0.85200006
-0.16673334 0.056120001 0.85400003
-0.16510667 0.056120001 0.85400003
-0.16348 0.056120001 0.85400003
-0.16185333 0.056120001 0.85400003
-0.16060191 0.056251429 0.85600007
-0.15934287 0.056382861 0.85800004
-0.15770859 0.056382861 0.85800004
-0.1564381 0.056514286 0.86000001
-0.15480001 0.056514286 0.86000001
-0.15316191 0.056514286 0.86000001
-0.15152381 0.056514286 0.86000001
-0.14988571 0.056514286 0.86000001
-0.14824761 0.056514286 0.86000001
-0.14660953 0.056514286 0.86000001
-0.14530857 0.056645717 0.86200005
-0.14416668 0.05684286 0.86500007
-0.14251907 0.05684286 0.86500007
-0.14119714 0.056974288 0.86700004
-0.13954572 0.056974288 0.86700004
-0.13821238 0.057105716 0.86900002
-0.13655715 0.057105716 0.86900002
-0.13490191 0.057105716 0.86900002
-0.13355334 0.057237145 0.87100005
-0.13189429 0.057237145 0.87100005
-0.13023524 0.057237145 0.87100005
-0.12887143 0.057368573 0.87300003
-0.12750001 0.057500005 0.87500006
-0.12583335 0.057500005 0.87500006
-0.12459239 0.057697143 0.87800002
-0.12292001 0.057697143 0.87800002
-0.12152381 0.057828575 0.88000005
-0.11984763 0.057828575 0.88000005
-0.11844 0.05796 0.88200003
-0.11702476 0.058091432 0.88400006
-0.11534096 0.058091432 0.88400006
-0.1134 0.05796 0.88200003
-0.11172 0.05796 0.88200003
-0.11004001 0.05796 0.88200003
-0.10860572 0.058091432 0.88400006
-0.10692191 0.058091432 0.88400006
-0.10559524 0.058288574 0.88700002
-0.10414001 0.058420002 0.88900006
-0.10244668 0.058420002 0.88900006
-0.10098001 0.058551431 0.89100003
-0.099617146 0.058748577 0.89400005
-0.098133333 0.058880001 0.89600003
-0.096426666 0.058880001 0.89600003
-0.094719999 0.058880001 0.89600003
-0.093013331 0.058880001 0.89600003
-0.091510482 0.059011433 0.89800006
-0.089800008 0.059011433 0.89800006
-0.088383809 0.059208572 0.90100002
-0.086860001 0.059340004 0.90300006
-0.085140005 0.059340004 0.90300006
-0.083604768 0.059471432 0.90500003
-0.081880957 0.059471432 0.90500003
-0.080422863 0.059668574 0.90800005
-0.078693338 0.059668574 0.90800005
-0.076963812 0.059668574 0.90800005
-0.075234286 0.059668574 0.90800005
-0.073666662 0.059799999 0.91000003
-0.071933329 0.059799999 0.91000003
-0.070199996 0.059799999 0.91000003
-0.068466663 0.059799999 0.91000003
-0.066953339 0.059997145 0.91300005
-0.065357141 0.060128573 0.91500002
-0.063614286 0.060128573 0.91500002
-0.061871432 0.060128573 0.91500002
-0.060260002 0.060260002 0.91700006
-0.05870476 0.06045714 0.92000002
-0.057261907 0.060785718 0.92500007
-0.055920001 0.061245721 0.93200004
-0.05431905 0.061442863 0.93500006
-0.052538101 0.061442863 0.93500006
-0.050865714 0.061574284 0.93700004
-0.049080957 0.061574284 0.93700004
-0.047447622 0.06177143 0.94000006
-0.045657143 0.06177143 0.94000006
-0.043866668 0.06177143 0.94000006
-0.042165715 0.061902858 0.94200003
-0.040371433 0.061902858 0.94200003
-0.038577143 0.061902858 0.94200003
-0.036782857 0.061902858 0.94200003
-0.035100002 0.062100001 0.94500005
-0.033476193 0.062428575 0.95000005
-0.032033335 0.063151427 0.96100003
-0.030202858 0.063151427 0.96100003
-0.02843143 0.063282862 0.96300006
-0.02668 0.063479997 0.96600002
-0.024840001 0.063479997 0.96600002
-0.023 0.063479997 0.96600002
-0.021225715 0.06367714 0.96900004
-0.019540003 0.06420286 0.97700006
-0.017733334 0.064400002 0.98000002
-0.015866667 0.064400002 0.98000002
-0.014042858 0.064597145 0.98300004
-0.012170476 0.064597145 0.98300004
-0.010298096 0.064597145 0.98300004
-0.0084257144 0.064597145 0.98300004
-0.006566667 0.064728573 0.98500007
-0.0046904762 0.064728573 0.98500007
-0.0028228574 0.064925715 0.98800004
-0.00094380957 0.065122865 0.99100006
0.00094380957 0.065122865 0.99100006
-0.29362002 0.056191429 0.83100003
-0.2913343 0.056056194 0.82900006
-0.28905618 0.055920955 0.82700002
-0.28609049 0.055650476 0.82300001
-0.28314003 0.055380005 0.81900007
-0.2808924 0.055244766 0.81700003
-0.27831048 0.055041905 0.81400001
-0.27675998 0.055041905 0.81400001
-0.27453333 0.05490667 0.81200004
-0.27231431 0.054771435 0.81000006
-0.27077144 0.054771435 0.81000006
-0.26856381 0.054636195 0.80800003
-0.26702476 0.054636195 0.80800003
-0.26482856 0.054500956 0.80600005
-0.26329333 0.054500956 0.80600005
-0.26110858 0.054365713 0.80400002
-0.25957713 0.054365713 0.80400002
-0.2580457 0.054365713 0.80400002
-0.25651428 0.054365713 0.80400002
-0.25434858 0.054230478 0.80200005
-0.25282097 0.054230478 0.80200005
-0.25129333 0.054230478 0.80200005
-0.24976574 0.054230478 0.80200005
-0.24823812 0.054230478 0.80200005
-0.24671049 0.054230478 0.80200005
-0.24457145 0.054095238 0.80000001
-0.24304761 0.054095238 0.80000001
-0.24152382 0.054095238 0.80000001
-0.23999999 0.054095238 0.80000001
-0.2384762 0.054095238 0.80000001
-0.23636001 0.053959999 0.79800004
-0.23542857 0.054095238 0.80000001
-0.23390476 0.054095238 0.80000001
-0.23238096 0.054095238 0.80000001
-0.23085715 0.054095238 0.80000001
-0.22876 0.053959999 0.79800004
-0.22780952 0.054095238 0.80000001
-0.22628571 0.054095238 0.80000001
-0.2247619 0.054095238 0.80000001
-0.22379619 0.054230478 0.80200005
-0.22282286 0.054365713 0.80400002
-0.22129142 0.054365713 0.80400002
-0.22030668 0.054500956 0.80600005
-0.21877144 0.054500956 0.80600005
-0.21777524 0.054636195 0.80800003
-0.21623619 0.054636195 0.80800003
-0.21469715 0.054636195 0.80800003
-0.21368572 0.054771435 0.81000006
-0.21214287 0.054771435 0.81000006
-0.21060002 0.054771435 0.81000006
-0.20905715 0.054771435 0.81000006
-0.20802668 0.05490667 0.81200004
-0.20648001 0.05490667 0.81200004
-0.20543809 0.055041905 0.81400001
-0.20388761 0.055041905 0.81400001
-0.20258573 0.055109527 0.81500006
-0.20202002 0.055380005 0.81900007
-0.20143905 0.055650476 0.82300001
-0.19987144 0.055650476 0.82300001
-0.19926763 0.055920955 0.82700002
-0.19769239 0.055920955 0.82700002
-0.19611715 0.055920955 0.82700002
-0.19454192 0.055920955 0.82700002
-0.19296667 0.055920955 0.82700002
-0.19139142 0.055920955 0.82700002
-0.18981619 0.055920955 0.82700002
-0.18869621 0.056056194 0.82900006
-0.18711714 0.056056194 0.82900006
-0.18643335 0.056326672 0.83300006
-0.18529049 0.056461908 0.83500004
-0.18414 0.056597143 0.83700001
-0.18298191 0.056732383 0.83900005
-0.18181619 0.056867622 0.84100002
-0.18107143 0.057138097 0.84500003
-0.17946191 0.057138097 0.84500003
-0.17890477 0.057476193 0.85000002
-0.17770287 0.057611432 0.85200006
-0.17608002 0.057611432 0.85200006
-0.17445715 0.057611432 0.85200006
-0.17283429 0.057611432 0.85200006
-0.17121145 0.057611432 0.85200006
-0.16958858 0.057611432 0.85200006
-0.16796573 0.057611432 0.85200006
-0.16634287 0.057611432 0.85200006
-0.16472001 0.057611432 0.85200006
-0.16309716 0.057611432 0.85200006
-0.16147429 0.057611432 0.85200006
-0.16022667 0.057746667 0.85400003
-0.15897144 0.05788191 0.85600007
-0.15770859 0.058017146 0.85800004
-0.15607429 0.058017146 0.85800004
-0.15444 0.058017146 0.85800004
-0.15316191 0.058152381 0.86000001
-0.15152381 0.058152381 0.86000001
-0.14988571 0.058152381 0.86000001
-0.14824761 0.058152381 0.86000001
-0.14660953 0.058152381 0.86000001
-0.14530857 0.058287621 0.86200005
-0.14366667 0.058287621 0.86200005
-0.14251907 0.058490481 0.86500007
-0.14119714 0.058625717 0.86700004
-0.13954572 0.058625717 0.86700004
-0.13789429 0.058625717 0.86700004
-0.13655715 0.058760952 0.86900002
-0.13490191 0.058760952 0.86900002
-0.13324666 0.058760952 0.86900002
-0.13159144 0.058760952 0.86900002
-0.13023524 0.058896191 0.87100005
-0.12857619 0.058896191 0.87100005
-0.12720858 0.059031431 0.87300003
-0.12583335 0.05916667 0.87500006
-0.12416668 0.05916667 0.87500006
-0.12292001 0.059369523 0.87800002
-0.12124762 0.059369523 0.87800002
-0.11984763 0.059504766 0.88000005
-0.11817144 0.059504766 0.88000005
-0.11649524 0.059504766 0.88000005
-0.11508001 0.059640002 0.88200003
-0.1134 0.059640002 0.88200003
-0.11172 0.059640002 0.88200003
-0.11004001 0.059640002 0.88200003
-0.10836001 0.059640002 0.88200003
-0.10692191 0.059775241 0.88400006
-0.1052381 0.059775241 0.88400006
-0.10390572 0.059978094 0.88700002
-0.10244668 0.060113337 0.88900006
-0.10098001 0.060248572 0.89100003
-0.099617146 0.060451429 0.89400005
-0.097914286 0.060451429 0.89400005
-0.096426666 0.060586669 0.89600003
-0.094719999 0.060586669 0.89600003
-0.093220957 0.060721908 0.89800006
-0.091510482 0.060721908 0.89800006
-0.089800008 0.060721908 0.89800006
-0.088089526 0.060721908 0.89800006
-0.08666762 0.060924761 0.90100002
-0.085140005 0.061060004 0.90300006
-0.083604768 0.061195243 0.90500003
-0.081880957 0.061195243 0.90500003
-0.080422863 0.061398096 0.90800005
-0.078693338 0.061398096 0.90800005
-0.076963812 0.061398096 0.90800005
-0.075234286 0.061398096 0.90800005
-0.073504768 0.061398096 0.90800005
-0.071775243 0.061398096 0.90800005
-0.070199996 0.061533332 0.91000003
-0.068466663 0.061533332 0.91000003
-0.06673333 0.061533332 0.91000003
-0.065214291 0.061736196 0.91300005
-0.063475236 0.061736196 0.91300005
-0.061871432 0.061871432 0.91500002
-0.060260002 0.062006667 0.91700006
-0.05870476 0.062209524 0.92000002
-0.057261907 0.062547624 0.92500007
-0.055920001 0.063020959 0.93200004
-0.054144762 0.063020959 0.93200004
-0.052538101 0.063223809 0.93500006
-0.050865714 0.063359044 0.93700004
-0.049080957 0.063359044 0.93700004
-0.047296192 0.063359044 0.93700004
-0.045657143 0.063561909 0.94000006
-0.043866668 0.063561909 0.94000006
-0.042076193 0.063561909 0.94000006
-0.040285718 0.063561909 0.94000006
-0.038495239 0.063561909 0.94000006
-0.036704764 0.063561909 0.94000006
-0.034988575 0.063697144 0.94200003
-0.033405717 0.064102866 0.94800007
-0.031933334 0.064779051 0.95800006
-0.030202858 0.064981908 0.96100003
-0.028372381 0.064981908 0.96100003
-0.026597144 0.065117143 0.96300006
-0.024762858 0.065117143 0.96300006
-0.023 0.06532 0.96600002
-0.021291429 0.065725714 0.97200006
-0.019479999 0.065860949 0.97400004
-0.017679049 0.066063814 0.97700006
-0.015866667 0.066266671 0.98000002
-0.014 0.066266671 0.98000002
-0.012133333 0.066266671 0.98000002
-0.010266667 0.066266671 0.98000002
-0.0084257144 0.06646952 0.98300004
-0.006566667 0.066604763 0.98500007
-0.0046904762 0.066604763 0.98500007
-0.0028228574 0.06680762 0.98800004
-0.00094095239 0.06680762 0.98800004
0.00094380957 0.067010485 0.99100006
-0.29291335 0.057635244 0.82900006
-0.29063141 0.057496194 0.82700002
-0.28835717 0.057357144 0.82500005
-0.28539523 0.057079051 0.82100004
-0.28314003 0.056940004 0.81900007
-0.28020477 0.056661908 0.81500006
-0.27831048 0.056592382 0.81400001
-0.27608001 0.056453332 0.81200004
-0.27453333 0.056453332 0.81200004
-0.27231431 0.05631429 0.81000006
-0.27010286 0.056175239 0.80800003
-0.26856381 0.056175239 0.80800003
-0.2663638 0.056036193 0.80600005
-0.26482856 0.056036193 0.80600005
-0.26264 0.055897143 0.80400002
-0.26110858 0.055897143 0.80400002
-0.25957713 0.055897143 0.80400002
-0.2580457 0.055897143 0.80400002
-0.25587621 0.0557581 0.80200005
-0.25434858 0.0557581 0.80200005
-0.25282097 0.0557581 0.80200005
-0.25129333 0.0557581 0.80200005
-0.24976574 0.0557581 0.80200005
-0.24761905 0.05561905 0.80000001
-0.24609523 0.05561905 0.80000001
-0.24457145 0.05561905 0.80000001
-0.24304761 0.05561905 0.80000001
-0.24152382 0.05561905 0.80000001
-0.23940001 0.05548 0.79800004
-0.23788002 0.05548 0.79800004
-0.23636001 0.05548 0.79800004
-0.23484001 0.05548 0.79800004
-0.23332 0.05548 0.79800004
-0.2318 0.05548 0.79800004
-0.23028 0.05548 0.79800004
-0.22876 0.05548 0.79800004
-0.22724 0.05548 0.79800004
-0.22572 0.05548 0.79800004
-0.2247619 0.05561905 0.80000001
-0.22379619 0.0557581 0.80200005
-0.22226858 0.0557581 0.80200005
-0.22129142 0.055897143 0.80400002
-0.21976 0.055897143 0.80400002
-0.21877144 0.056036193 0.80600005
-0.21723621 0.056036193 0.80600005
-0.21570095 0.056036193 0.80600005
-0.21469715 0.056175239 0.80800003
-0.2131581 0.056175239 0.80800003
-0.21214287 0.05631429 0.81000006
-0.21060002 0.05631429 0.81000006
-0.20905715 0.05631429 0.81000006
-0.20802668 0.056453332 0.81200004
-0.20648001 0.056453332 0.81200004
-0.20493335 0.056453332 0.81200004
-0.20388761 0.056592382 0.81400001
-0.20233715 0.056592382 0.81400001
-0.20152667 0.056800954 0.81700003
-0.20143905 0.057218097 0.82300001
-0.20035715 0.057357144 0.82500005
-0.19878572 0.057357144 0.82500005
-0.19721429 0.057357144 0.82500005
-0.19611715 0.057496194 0.82700002
-0.19454192 0.057496194 0.82700002
-0.19296667 0.057496194 0.82700002
-0.19139142 0.057496194 0.82700002
-0.18981619 0.057496194 0.82700002
-0.18824095 0.057496194 0.82700002
-0.18711714 0.057635244 0.82900006
-0.18598571 0.057774287 0.83100003
-0.18529049 0.058052383 0.83500004
-0.18414 0.05819143 0.83700001
-0.18298191 0.058330476 0.83900005
-0.18181619 0.058469526 0.84100002
-0.18064287 0.058608577 0.84300005
-0.17946191 0.058747619 0.84500003
-0.17848381 0.058956195 0.84800005
-0.17728572 0.059095241 0.85000002
-0.17566667 0.059095241 0.85000002
-0.17445715 0.059234288 0.85200006
-0.17283429 0.059234288 0.85200006
-0.17121145 0.059234288 0.85200006
-0.16958858 0.059234288 0.85200006
-0.16796573 0.059234288 0.85200006
-0.16634287 0.059234288 0.85200006
-0.16472001 0.059234288 0.85200006
-0.16309716 0.059234288 0.85200006
-0.16147429 0.059234288 0.85200006
-0.16022667 0.059373334 0.85400003
-0.1586 0.059373334 0.85400003
-0.15734096 0.059512388 0.85600007
-0.15571049 0.059512388 0.85600007
-0.15444 0.059651431 0.85800004
-0.15280573 0.059651431 0.85800004
-0.15152381 0.059790477 0.86000001
-0.14988571 0.059790477 0.86000001
-0.14824761 0.059790477 0.86000001
-0.14660953 0.059790477 0.86000001
-0.14497143 0.059790477 0.86000001
-0.14366667 0.059929527 0.86200005
-0.14202477 0.059929527 0.86200005
-0.14087144 0.060138099 0.86500007
-0.13922381 0.060138099 0.86500007
-0.13757621 0.060138099 0.86500007
-0.13624287 0.060277145 0.86700004
-0.13459145 0.060277145 0.86700004
-0.13324666 0.060416192 0.86900002
-0.13159144 0.060416192 0.86900002
-0.12993619 0.060416192 0.86900002
-0.12857619 0.060555242 0.87100005
-0.12720858 0.060694285 0.87300003
-0.12554571 0.060694285 0.87300003
-0.12416668 0.060833335 0.87500006
-0.12250001 0.060833335 0.87500006
-0.12124762 0.061041906 0.87800002
-0.11957524 0.061041906 0.87800002
-0.11817144 0.061180957 0.88000005
-0.11649524 0.061180957 0.88000005
-0.11481905 0.061180957 0.88000005
-0.11314286 0.061180957 0.88000005
-0.11146668 0.061180957 0.88000005
-0.10979048 0.061180957 0.88000005
-0.10836001 0.061319999 0.88200003
-0.10668 0.061319999 0.88200003
-0.1052381 0.061459053 0.88400006
-0.10390572 0.061667617 0.88700002
-0.10244668 0.061806668 0.88900006
-0.10098001 0.061945714 0.89100003
-0.099282861 0.061945714 0.89100003
-0.097914286 0.062154286 0.89400005
-0.096211433 0.062154286 0.89400005
-0.094719999 0.062293336 0.89600003
-0.093013331 0.062293336 0.89600003
-0.091306664 0.062293336 0.89600003
-0.089800008 0.062432382 0.89800006
-0.088089526 0.062432382 0.89800006
-0.086379051 0.062432382 0.89800006
-0.084951431 0.062640958 0.90100002
-0.083420001 0.062780008 0.90300006
-0.081880957 0.06291905 0.90500003
-0.080157146 0.06291905 0.90500003
-0.078693338 0.063127622 0.90800005
-0.076963812 0.063127622 0.90800005
-0.075234286 0.063127622 0.90800005
-0.073504768 0.063127622 0.90800005
-0.071775243 0.063127622 0.90800005
-0.070045717 0.063127622 0.90800005
-0.068316191 0.063127622 0.90800005
-0.066586666 0.063127622 0.90800005
-0.064999998 0.063266665 0.91000003
-0.063475236 0.063475236 0.91300005
-0.061871432 0.063614286 0.91500002
-0.060128573 0.063614286 0.91500002
-0.058513336 0.063753337 0.91700006
-0.057385717 0.064448573 0.92700005
-0.05562 0.064448573 0.92700005
-0.054144762 0.064796194 0.93200004
-0.052538101 0.065004766 0.93500006
-0.050757144 0.065004766 0.93500006
-0.049080957 0.065143809 0.93700004
-0.047296192 0.065143809 0.93700004
-0.045511432 0.065143809 0.93700004
-0.043726668 0.065143809 0.93700004
-0.041941907 0.065143809 0.93700004
-0.040157143 0.065143809 0.93700004
-0.038372383 0.065143809 0.93700004
-0.036704764 0.06535238 0.94000006
-0.034914289 0.06535238 0.94000006
-0.033300001 0.065700002 0.94500005
-0.031833336 0.066395238 0.95500004
-0.030108573 0.066603817 0.95800006
-0.02828381 0.066603817 0.95800006
-0.026541905 0.066812381 0.96100003
-0.024762858 0.066951431 0.96300006
-0.022928571 0.066951431 0.96300006
-0.021225715 0.067368567 0.96900004
-0.019479999 0.067716196 0.97400004
-0.017679049 0.067924768 0.97700006
-0.015818097 0.067924768 0.97700006
-0.014 0.068133332 0.98000002
-0.012133333 0.068133332 0.98000002
-0.010266667 0.068133332 0.98000002
-0.0084257144 0.068341903 0.98300004
-0.006566667 0.068480961 0.98500007
-0.0046904762 0.068480961 0.98500007
-0.0028228574 0.068689525 0.98800004
-0.00094095239 0.068689525 0.98800004
0.00094095239 0.068689525 0.98800004
-0.29220667 0.059071429 0.82700002
-0.28992859 0.058928575 0.82500005
-0.2876581 0.058785714 0.82300001
-0.28470004 0.058500003 0.81900007
-0.28244859 0.058357142 0.81700003
-0.28020477 0.058214288 0.81500006
-0.27831048 0.058142856 0.81400001
-0.27608001 0.058000002 0.81200004
-0.27453333 0.058000002 0.81200004
-0.27231431 0.057857145 0.81000006
-0.27010286 0.057714287 0.80800003
-0.26789904 0.057571433 0.80600005
-0.26570287 0.057428572 0.80400002
-0.26417142 0.057428572 0.80400002
-0.26264 0.057428572 0.80400002
-0.26110858 0.057428572 0.80400002
-0.25893146 0.057285715 0.80200005
-0.25740382 0.057285715 0.80200005
-0.25587621 0.057285715 0.80200005
-0.25434858 0.057285715 0.80200005
-0.2521905 0.057142857 0.80000001
-0.25066668 0.057142857 0.80000001
-0.24914286 0.057142857 0.80000001
-0.24761905 0.057142857 0.80000001
-0.24548 0.057 0.79800004
-0.24396002 0.057 0.79800004
-0.24244002 0.057 0.79800004
-0.24092002 0.057 0.79800004
-0.23940001 0.057 0.79800004
-0.23788002 0.057 0.79800004
-0.23636001 0.057 0.79800004
-0.23484001 0.057 0.79800004
-0.23332 0.057 0.79800004
-0.23150954 0.056928575 0.79700005
-0.23028 0.057 0.79800004
-0.22876 0.057 0.79800004
-0.22724 0.057 0.79800004
-0.22572 0.057 0.79800004
-0.2242 0.057 0.79800004
-0.2232381 0.057142857 0.80000001
-0.22226858 0.057285715 0.80200005
-0.22074096 0.057285715 0.80200005
-0.21976 0.057428572 0.80400002
-0.21822856 0.057428572 0.80400002
-0.21669716 0.057428572 0.80400002
-0.21516572 0.057428572 0.80400002
-0.21416572 0.057571433 0.80600005
-0.2131581 0.057714287 0.80800003
-0.21161906 0.057714287 0.80800003
-0.21060002 0.057857145 0.81000006
-0.20905715 0.057857145 0.81000006
-0.20802668 0.058000002 0.81200004
-0.20648001 0.058000002 0.81200004
-0.20493335 0.058000002 0.81200004
-0.20338668 0.058000002 0.81200004
-0.20233715 0.058142856 0.81400001
-0.20078667 0.058142856 0.81400001
-0.20046002 0.058500003 0.81900007
-0.19987144 0.058785714 0.82300001
-0.19878572 0.058928575 0.82500005
-0.19769239 0.059071429 0.82700002
-0.19611715 0.059071429 0.82700002
-0.19454192 0.059071429 0.82700002
-0.19296667 0.059071429 0.82700002
-0.19139142 0.059071429 0.82700002
-0.18981619 0.059071429 0.82700002
-0.18824095 0.059071429 0.82700002
-0.18711714 0.059214287 0.82900006
-0.18553811 0.059214287 0.82900006
-0.18484668 0.059500005 0.83300006
-0.18326002 0.059500005 0.83300006
-0.18254572 0.059785716 0.83700001
-0.1813838 0.059928574 0.83900005
-0.18064287 0.060214289 0.84300005
-0.17903715 0.060214289 0.84300005
-0.17743143 0.060214289 0.84300005
-0.17728572 0.060714286 0.85000002
-0.17566667 0.060714286 0.85000002
-0.17404762 0.060714286 0.85000002
-0.17242858 0.060714286 0.85000002
-0.17080952 0.060714286 0.85000002
-0.16919048 0.060714286 0.85000002
-0.16757144 0.060714286 0.85000002
-0.16595238 0.060714286 0.85000002
-0.16433333 0.060714286 0.85000002
-0.16271429 0.060714286 0.85000002
-0.16147429 0.060857147 0.85200006
-0.15985143 0.060857147 0.85200006
-0.1586 0.061000001 0.85400003
-0.15697333 0.061000001 0.85400003
-0.15571049 0.061142862 0.85600007
-0.15408 0.061142862 0.85600007
-0.15280573 0.061285719 0.85800004
-0.15117143 0.061285719 0.85800004
-0.14953715 0.061285719 0.85800004
-0.14824761 0.061428569 0.86000001
-0.14660953 0.061428569 0.86000001
-0.14497143 0.061428569 0.86000001
-0.14366667 0.06157143 0.86200005
-0.14202477 0.06157143 0.86200005
-0.14038286 0.06157143 0.86200005
-0.13874096 0.06157143 0.86200005
-0.13757621 0.06178572 0.86500007
-0.13592857 0.06178572 0.86500007
-0.13459145 0.061928574 0.86700004
-0.13294001 0.061928574 0.86700004
-0.13159144 0.062071431 0.86900002
-0.12993619 0.062071431 0.86900002
-0.12857619 0.062214289 0.87100005
-0.12720858 0.062357143 0.87300003
-0.12554571 0.062357143 0.87300003
-0.12388287 0.062357143 0.87300003
-0.12250001 0.062500007 0.87500006
-0.12083334 0.062500007 0.87500006
-0.11957524 0.062714286 0.87800002
-0.11790286 0.062714286 0.87800002
-0.11623047 0.062714286 0.87800002
-0.1145581 0.062714286 0.87800002
-0.11288572 0.062714286 0.87800002
-0.11121333 0.062714286 0.87800002
-0.10979048 0.062857151 0.88000005
-0.10811429 0.062857151 0.88000005
-0.1064381 0.062857151 0.88000005
-0.105 0.063000001 0.88200003
-0.10355429 0.063142858 0.88400006
-0.10221619 0.063357145 0.88700002
-0.10075334 0.063500002 0.88900006
-0.099282861 0.063642859 0.89100003
-0.097585715 0.063642859 0.89100003
-0.096211433 0.063857146 0.89400005
-0.094719999 0.064000003 0.89600003
-0.093013331 0.064000003 0.89600003
-0.091510482 0.06414286 0.89800006
-0.089800008 0.06414286 0.89800006
-0.088089526 0.06414286 0.89800006
-0.086379051 0.06414286 0.89800006
-0.084951431 0.064357147 0.90100002
-0.083420001 0.064500004 0.90300006
-0.081700005 0.064500004 0.90300006
-0.080157146 0.064642854 0.90500003
-0.078433335 0.064642854 0.90500003
-0.076709531 0.064642854 0.90500003
-0.075234286 0.064857148 0.90800005
-0.073504768 0.064857148 0.90800005
-0.071775243 0.064857148 0.90800005
-0.070045717 0.064857148 0.90800005
-0.068316191 0.064857148 0.90800005
-0.066586666 0.064857148 0.90800005
-0.064999998 0.064999998 0.91000003
-0.063266665 0.064999998 0.91000003
-0.061871432 0.065357141 0.91500002
-0.060128573 0.065357141 0.91500002
-0.058513336 0.065499999 0.91700006
-0.057385717 0.066214286 0.92700005
-0.055800002 0.066428579 0.93000007
-0.054144762 0.066571429 0.93200004
-0.052538101 0.066785723 0.93500006
-0.050757144 0.066785723 0.93500006
-0.048976194 0.066785723 0.93500006
-0.047195241 0.066785723 0.93500006
-0.045414288 0.066785723 0.93500006
-0.043726668 0.066928573 0.93700004
-0.041852385 0.066785723 0.93500006
-0.040071432 0.066785723 0.93500006
-0.038290478 0.066785723 0.93500006
-0.036587618 0.066928573 0.93700004
-0.034802862 0.066928573 0.93700004
-0.033581905 0.068071432 0.95300007
-0.031833336 0.068214282 0.95500004
-0.030108573 0.068428576 0.95800006
-0.02828381 0.068428576 0.95800006
-0.026541905 0.068642862 0.96100003
-0.024711428 0.068642862 0.96100003
-0.022928571 0.06878572 0.96300006
-0.021160001 0.069000006 0.96600002
-0.019380001 0.069214284 0.96900004
-0.017624762 0.069571428 0.97400004
-0.015818097 0.069785714 0.97700006
-0.014 0.07 0.98000002
-0.012133333 0.07 0.98000002
-0.010266667 0.07 0.98000002
-0.0083999997 0.07 0.98000002
-0.0065533337 0.070214294 0.98300004
-0.0046904762 0.070357151 0.98500007
-0.0028142859 0.070357151 0.98500007
-0.00094095239 0.07057143 0.98800004
0.00094095239 0.07057143 0.98800004
0.0028314285 0.070785716 0.99100006
-0.29165047 0.06020667 0.82100004
-0.2915 0.060500003 0.82500005
-0.28922573 0.060353335 0.82300001
-0.28695905 0.06020667 0.82100004
-0.28470004 0.060060002 0.81900007
-0.28175718 0.059766669 0.81500006
-0.28020477 0.059766669 0.81500006
-0.27762669 0.059546668 0.81200004
-0.27608001 0.059546668 0.81200004
-0.27385715 0.059400007 0.81000006
-0.27164191 0.059253335 0.80800003
-0.2694343 0.05910667 0.80600005
-0.2672343 0.058960002 0.80400002
-0.26570287 0.058960002 0.80400002
-0.26417142 0.058960002 0.80400002
-0.26264 0.058960002 0.80400002
-0.26045907 0.058813337 0.80200005
-0.25893146 0.058813337 0.80200005
-0.25740382 0.058813337 0.80200005
-0.25587621 0.058813337 0.80200005
-0.25371426 0.058666669 0.80000001
-0.2521905 0.058666669 0.80000001
-0.25066668 0.058666669 0.80000001
-0.24852002 0.05852 0.79800004
-0.24700001 0.05852 0.79800004
-0.24548 0.05852 0.79800004
-0.24396002 0.05852 0.79800004
-0.2421362 0.058446668 0.79700005
-0.24061811 0.058446668 0.79700005
-0.23910002 0.058446668 0.79700005
-0.23758191 0.058446668 0.79700005
-0.23606382 0.058446668 0.79700005
-0.23454572 0.058446668 0.79700005
-0.23302764 0.058446668 0.79700005
-0.23150954 0.058446668 0.79700005
-0.23028 0.05852 0.79800004
-0.22876 0.05852 0.79800004
-0.22724 0.05852 0.79800004
-0.22572 0.05852 0.79800004
-0.2242 0.05852 0.79800004
-0.2232381 0.058666669 0.80000001
-0.22171429 0.058666669 0.80000001
-0.22019047 0.058666669 0.80000001
-0.21921334 0.058813337 0.80200005
-0.21768571 0.058813337 0.80200005
-0.21669716 0.058960002 0.80400002
-0.21516572 0.058960002 0.80400002
-0.2136343 0.058960002 0.80400002
-0.21263048 0.05910667 0.80600005
-0.21161906 0.059253335 0.80800003
-0.21008001 0.059253335 0.80800003
-0.20905715 0.059400007 0.81000006
-0.20802668 0.059546668 0.81200004
-0.20648001 0.059546668 0.81200004
-0.20493335 0.059546668 0.81200004
-0.20338668 0.059546668 0.81200004
-0.20233715 0.059693333 0.81400001
-0.20078667 0.059693333 0.81400001
-0.19997048 0.059913337 0.81700003
-0.19890001 0.060060002 0.81900007
-0.19878572 0.060500003 0.82500005
-0.19721429 0.060500003 0.82500005
-0.19611715 0.060646668 0.82700002
-0.19454192 0.060646668 0.82700002
-0.19296667 0.060646668 0.82700002
-0.19139142 0.060646668 0.82700002
-0.18981619 0.060646668 0.82700002
-0.18824095 0.060646668 0.82700002
-0.18711714 0.060793336 0.82900006
-0.18553811 0.060793336 0.82900006
-0.18440285 0.060940001 0.83100003
-0.18326002 0.061086673 0.83300006
-0.18210953 0.061233338 0.83500004
-0.18095143 0.061379995 0.83700001
-0.17978573 0.061526671 0.83900005
-0.17861238 0.061673336 0.84100002
-0.17785239 0.061966669 0.84500003
-0.17624286 0.061966669 0.84500003
-0.17463334 0.061966669 0.84500003
-0.17302381 0.061966669 0.84500003
-0.17141429 0.061966669 0.84500003
-0.16980477 0.061966669 0.84500003
-0.16819525 0.061966669 0.84500003
-0.16658571 0.061966669 0.84500003
-0.16497619 0.061966669 0.84500003
-0.16336668 0.061966669 0.84500003
-0.16271429 0.062333338 0.85000002
-0.16109525 0.062333338 0.85000002
-0.15985143 0.062480003 0.85200006
-0.15822859 0.062480003 0.85200006
-0.15697333 0.062626667 0.85400003
-0.15534668 0.062626667 0.85400003
-0.15372001 0.062626667 0.85400003
-0.15244953 0.062773332 0.85600007
-0.15081906 0.062773332 0.85600007
-0.14953715 0.062920004 0.85800004
-0.14790286 0.062920004 0.85800004
-0.14626858 0.062920004 0.85800004
-0.14497143 0.063066669 0.86000001
-0.14333333 0.063066669 0.86000001
-0.14169523 0.063066669 0.86000001
-0.14038286 0.063213333 0.86200005
-0.13874096 0.063213333 0.86200005
-0.13709906 0.063213333 0.86200005
-0.13545716 0.063213333 0.86200005
-0.13428096 0.063433334 0.86500007
-0.13263334 0.063433334 0.86500007
-0.13128859 0.063579999 0.86700004
-0.12963715 0.063579999 0.86700004
-0.12828095 0.063726671 0.86900002
-0.12691714 0.063873336 0.87100005
-0.1252581 0.063873336 0.87100005
-0.12359905 0.063873336 0.87100005
-0.12222001 0.06402 0.87300003
-0.12055714 0.06402 0.87300003
-0.11916667 0.064166673 0.87500006
-0.11750001 0.064166673 0.87500006
-0.11583334 0.064166673 0.87500006
-0.1145581 0.064386666 0.87800002
-0.11288572 0.064386666 0.87800002
-0.11121333 0.064386666 0.87800002
-0.10954095 0.064386666 0.87800002
-0.10786857 0.064386666 0.87800002
-0.1064381 0.064533338 0.88000005
-0.10476191 0.064533338 0.88000005
-0.10308572 0.064533338 0.88000005
-0.10164 0.064680003 0.88200003
-0.10052667 0.065046668 0.88700002
-0.099060006 0.065193333 0.88900006
-0.097585715 0.065340005 0.89100003
-0.096211433 0.065560006 0.89400005
-0.094508581 0.065560006 0.89400005
-0.093013331 0.06570667 0.89600003
-0.091306664 0.06570667 0.89600003
-0.089800008 0.065853335 0.89800006
-0.088089526 0.065853335 0.89800006
-0.086379051 0.065853335 0.89800006
-0.084668577 0.065853335 0.89800006
-0.083235241 0.066073328 0.90100002
-0.081700005 0.066220008 0.90300006
-0.080157146 0.066366673 0.90500003
-0.078433335 0.066366673 0.90500003
-0.076709531 0.066366673 0.90500003
-0.074985713 0.066366673 0.90500003
-0.073504768 0.066586666 0.90800005
-0.071775243 0.066586666 0.90800005
-0.070045717 0.066586666 0.90800005
-0.068316191 0.066586666 0.90800005
-0.066586666 0.066586666 0.90800005
-0.064999998 0.06673333 0.91000003
-0.063266665 0.06673333 0.91000003
-0.061736196 0.066953339 0.91300005
-0.060128573 0.067100003 0.91500002
-0.058513336 0.067246668 0.91700006
-0.057385717 0.067980006 0.92700005
-0.055800002 0.068200007 0.93000007
-0.054144762 0.068346664 0.93200004
-0.052369528 0.068346664 0.93200004
-0.050757144 0.068566665 0.93500006
-0.048976194 0.068566665 0.93500006
-0.047195241 0.068566665 0.93500006
-0.045414288 0.068566665 0.93500006
-0.043633334 0.068566665 0.93500006
-0.041852385 0.068566665 0.93500006
-0.040071432 0.068566665 0.93500006
-0.038290478 0.068566665 0.93500006
-0.036509525 0.068566665 0.93500006
-0.034802862 0.068713337 0.93700004
-0.033194285 0.069080003 0.94200003
-0.031666666 0.069666669 0.95000005
-0.030014286 0.070033334 0.95500004
-0.02819524 0.070033334 0.95500004
-0.026459049 0.070253342 0.95800006
-0.024634287 0.070253342 0.95800006
-0.022880953 0.070473336 0.96100003
-0.021160001 0.070840001 0.96600002
-0.019320002 0.070840001 0.96600002
-0.017624762 0.071426667 0.97400004
-0.015769524 0.071426667 0.97400004
-0.013957144 0.071646668 0.97700006
-0.012096192 0.071646668 0.97700006
-0.010266667 0.071866661 0.98000002
-0.0083999997 0.071866661 0.98000002
-0.0065533337 0.07208667 0.98300004
-0.0046809525 0.07208667 0.98300004
-0.0028142859 0.072233342 0.98500007
-0.00093809533 0.072233342 0.98500007
0.00093809533 0.072233342 0.98500007
0.0028142859 0.072233342 0.98500007
0.0046904762 0.072233342 0.98500007
-0.29094002 0.061620004 0.81900007
-0.29008666 0.061770476 0.82100004
-0.28852287 0.061770476 0.82100004
-0.28626004 0.061620004 0.81900007
-0.28400478 0.061469521 0.81700003
-0.28175718 0.061319049 0.81500006
-0.28020477 0.061319049 0.81500006
-0.27762669 0.061093334 0.81200004
-0.27540001 0.060942862 0.81000006
-0.27318093 0.060792383 0.80800003
-0.27096954 0.060641907 0.80600005
-0.2694343 0.060641907 0.80600005
-0.2672343 0.060491432 0.80400002
-0.26570287 0.060491432 0.80400002
-0.26417142 0.060491432 0.80400002
-0.2619867 0.060340952 0.80200005
-0.26045907 0.060340952 0.80200005
-0.25893146 0.060340952 0.80200005
-0.25676191 0.060190476 0.80000001
-0.25523809 0.060190476 0.80000001
-0.25371426 0.060190476 0.80000001
-0.25156 0.060040005 0.79800004
-0.25004002 0.060040005 0.79800004
-0.24852002 0.060040005 0.79800004
-0.24700001 0.060040005 0.79800004
-0.24517241 0.059964765 0.79700005
-0.2436543 0.059964765 0.79700005
-0.2421362 0.059964765 0.79700005
-0.24061811 0.059964765 0.79700005
-0.23910002 0.059964765 0.79700005
-0.23758191 0.059964765 0.79700005
-0.23606382 0.059964765 0.79700005
-0.23454572 0.059964765 0.79700005
-0.23302764 0.059964765 0.79700005
-0.23150954 0.059964765 0.79700005
-0.22999144 0.059964765 0.79700005
-0.22847335 0.059964765 0.79700005
-0.22695525 0.059964765 0.79700005
-0.22543715 0.059964765 0.79700005
-0.22391906 0.059964765 0.79700005
-0.22268 0.060040005 0.79800004
-0.22116001 0.060040005 0.79800004
-0.22019047 0.060190476 0.80000001
-0.21866667 0.060190476 0.80000001
-0.21768571 0.060340952 0.80200005
-0.21615811 0.060340952 0.80200005
-0.21516572 0.060491432 0.80400002
-0.2136343 0.060491432 0.80400002
-0.21210286 0.060491432 0.80400002
-0.21109524 0.060641907 0.80600005
-0.21008001 0.060792383 0.80800003
-0.20905715 0.060942862 0.81000006
-0.2075143 0.060942862 0.81000006
-0.20648001 0.061093334 0.81200004
-0.20493335 0.061093334 0.81200004
-0.20338668 0.061093334 0.81200004
-0.20184 0.061093334 0.81200004
-0.20078667 0.06124381 0.81400001
-0.19948097 0.061319049 0.81500006
-0.1984143 0.061469521 0.81700003
-0.19830382 0.061920948 0.82300001
-0.19673619 0.061920948 0.82300001
-0.19611715 0.062221903 0.82700002
-0.19454192 0.062221903 0.82700002
-0.19296667 0.062221903 0.82700002
-0.19139142 0.062221903 0.82700002
-0.18981619 0.062221903 0.82700002
-0.18824095 0.062221903 0.82700002
-0.18666571 0.062221903 0.82700002
-0.18553811 0.062372386 0.82900006
-0.18395905 0.062372386 0.82900006
-0.18282001 0.062522858 0.83100003
-0.18167335 0.062673338 0.83300006
-0.18051906 0.06282381 0.83500004
-0.17978573 0.063124768 0.83900005
-0.17818764 0.063124768 0.83900005
-0.17743143 0.06342572 0.84300005
-0.17582572 0.06342572 0.84300005
-0.17463334 0.063576192 0.84500003
-0.17302381 0.063576192 0.84500003
-0.17141429 0.063576192 0.84500003
-0.16980477 0.063576192 0.84500003
-0.16819525 0.063576192 0.84500003
-0.16658571 0.063576192 0.84500003
-0.16497619 0.063576192 0.84500003
-0.16336668 0.063576192 0.84500003
-0.16233143 0.063801907 0.84800005
-0.16109525 0.063952379 0.85000002
-0.15947621 0.063952379 0.85000002
-0.15822859 0.064102866 0.85200006
-0.15660572 0.064102866 0.85200006
-0.15498286 0.064102866 0.85200006
-0.15372001 0.064253338 0.85400003
-0.15209335 0.064253338 0.85400003
-0.15081906 0.064403817 0.85600007
-0.14953715 0.064554289 0.85800004
-0.14790286 0.064554289 0.85800004
-0.14626858 0.064554289 0.85800004
-0.14497143 0.064704761 0.86000001
-0.14333333 0.064704761 0.86000001
-0.14169523 0.064704761 0.86000001
-0.14005713 0.064704761 0.86000001
-0.13841905 0.064704761 0.86000001
-0.13709906 0.064855248 0.86200005
-0.13545716 0.064855248 0.86200005
-0.13381524 0.064855248 0.86200005
-0.13263334 0.065080956 0.86500007
-0.13098572 0.065080956 0.86500007
-0.12963715 0.065231435 0.86700004
-0.12798572 0.065231435 0.86700004
-0.12662572 0.065381907 0.86900002
-0.12497048 0.065381907 0.86900002
-0.12359905 0.065532386 0.87100005
-0.12194 0.065532386 0.87100005
-0.12055714 0.065682858 0.87300003
-0.11916667 0.065833338 0.87500006
-0.11750001 0.065833338 0.87500006
-0.11583334 0.065833338 0.87500006
-0.11416667 0.065833338 0.87500006
-0.11288572 0.066059045 0.87800002
-0.11121333 0.066059045 0.87800002
-0.10954095 0.066059045 0.87800002
-0.10786857 0.066059045 0.87800002
-0.10619619 0.066059045 0.87800002
-0.10476191 0.066209525 0.88000005
-0.10308572 0.066209525 0.88000005
-0.10164 0.066360004 0.88200003
-0.10018667 0.066510484 0.88400006
-0.098837145 0.066736192 0.88700002
-0.097366676 0.066886671 0.88900006
-0.095888577 0.067037143 0.89100003
-0.094508581 0.067262866 0.89400005
-0.093013331 0.067413338 0.89600003
-0.091306664 0.067413338 0.89600003
-0.089600004 0.067413338 0.89600003
-0.088089526 0.067563809 0.89800006
-0.086379051 0.067563809 0.89800006
-0.084668577 0.067563809 0.89800006
-0.083235241 0.067789525 0.90100002
-0.081519045 0.067789525 0.90100002
-0.079980001 0.067940004 0.90300006
-0.078433335 0.068090476 0.90500003
-0.076709531 0.068090476 0.90500003
-0.074985713 0.068090476 0.90500003
-0.073261909 0.068090476 0.90500003
-0.071775243 0.068316191 0.90800005
-0.070045717 0.068316191 0.90800005
-0.068316191 0.068316191 0.90800005
-0.066586666 0.068316191 0.90800005
-0.064999998 0.068466663 0.91000003
-0.063266665 0.068466663 0.91000003
-0.061736196 0.068692386 0.91300005
-0.060128573 0.068842858 0.91500002
-0.058832381 0.069369525 0.92200005
-0.057385717 0.069745712 0.92700005
-0.05562 0.069745712 0.92700005
-0.054028574 0.069971435 0.93000007
-0.052369528 0.070121907 0.93200004
-0.050594285 0.070121907 0.93200004
-0.048976194 0.070347622 0.93500006
-0.047195241 0.070347622 0.93500006
-0.045414288 0.070347622 0.93500006
-0.043633334 0.070347622 0.93500006
-0.041852385 0.070347622 0.93500006
-0.040071432 0.070347622 0.93500006
-0.038290478 0.070347622 0.93500006
-0.036509525 0.070347622 0.93500006
-0.034802862 0.070498094 0.93700004
-0.03312381 0.070723809 0.94000006
-0.031600002 0.071325719 0.94800007
-0.029951429 0.071701907 0.95300007
-0.02819524 0.071852379 0.95500004
-0.026376192 0.071852379 0.95500004
-0.024634287 0.072078101 0.95800006
-0.022809524 0.072078101 0.95800006
-0.021094287 0.072454289 0.96300006
-0.019320002 0.072680004 0.96600002
-0.017534286 0.072905719 0.96900004
-0.015737142 0.073131427 0.97200006
-0.013914286 0.073281907 0.97400004
-0.012059048 0.073281907 0.97400004
-0.010235239 0.073507622 0.97700006
-0.0083999997 0.07373333 0.98000002
-0.0065333336 0.07373333 0.98000002
-0.0046809525 0.073959053 0.98300004
-0.0028085716 0.073959053 0.98300004
-0.00093809533 0.074109524 0.98500007
0.00093809533 0.074109524 0.98500007
0.0028085716 0.073959053 0.98300004
0.0046809525 0.073959053 0.98300004
-0.29236096 0.063488573 0.82300001
-0.29008666 0.063334286 0.82100004
-0.28852287 0.063334286 0.82100004
-0.28626004 0.063180007 0.81900007
-0.28400478 0.063025713 0.81700003
-0.28175718 0.062871434 0.81500006
-0.27986094 0.062794283 0.81400001
-0.27762669 0.062640004 0.81200004
-0.27472001 0.062331434 0.80800003
-0.27250478 0.062177144 0.80600005
-0.27096954 0.062177144 0.80600005
-0.26876572 0.062022857 0.80400002
-0.2672343 0.062022857 0.80400002
-0.26504192 0.061868574 0.80200005
-0.26351428 0.061868574 0.80200005
-0.2619867 0.061868574 0.80200005
-0.26045907 0.061868574 0.80200005
-0.25893146 0.061868574 0.80200005
-0.25676191 0.061714288 0.80000001
-0.25523809 0.061714288 0.80000001
-0.25308001 0.061560001 0.79800004
-0.25124475 0.061482862 0.79700005
-0.24972668 0.061482862 0.79700005
-0.24820858 0.061482862 0.79700005
-0.2466905 0.061482862 0.79700005
-0.24517241 0.061482862 0.79700005
-0.2436543 0.061482862 0.79700005
-0.2421362 0.061482862 0.79700005
-0.24061811 0.061482862 0.79700005
-0.23910002 0.061482862 0.79700005
-0.23758191 0.061482862 0.79700005
-0.23606382 0.061482862 0.79700005
-0.23454572 0.061482862 0.79700005
-0.23302764 0.061482862 0.79700005
-0.23150954 0.061482862 0.79700005
-0.22999144 0.061482862 0.79700005
-0.22847335 0.061482862 0.79700005
-0.22695525 0.061482862 0.79700005
-0.22543715 0.061482862 0.79700005
-0.22391906 0.061482862 0.79700005
-0.22268 0.061560001 0.79800004
-0.22116001 0.061560001 0.79800004
-0.21964 0.061560001 0.79800004
