# .PCD v0.7 - Point Cloud Data file format
VERSION 0.7
FIELDS x y z
SIZE 4 4 4
TYPE F F F
COUNT 1 1 1
WIDTH 1434
HEIGHT 1
VIEWPOINT 0 0 0 1 0 0 0
POINTS 1434
DATA ascii
-0.13549143 0.27472571 0.78600001
-0.13399428 0.27472571 0.78600001
-0.1328343 0.27542478 0.78800005
-0.13133334 0.27542478 0.78800005
-0.12983239 0.27542478 0.78800005
-0.12833142 0.27542478 0.78800005
-0.12699144 0.2757743 0.78900003
-0.12548856 0.2757743 0.78900003
-0.1243 0.27647331 0.79100001
-0.12279333 0.27647331 0.79100001
-0.12159333 0.27717239 0.79300004
-0.12008286 0.27717239 0.79300004
-0.11887143 0.27787143 0.79500002
-0.11735715 0.27787143 0.79500002
-0.11613429 0.2785705 0.79700005
-0.11476 0.27892002 0.79800004
-0.11352381 0.27961904 0.80000001
-0.11172 0.27892002 0.79800004
-0.1102 0.27892002 0.79800004
-0.10868 0.27892002 0.79800004
-0.10716 0.27892002 0.79800004
-0.10590477 0.27961904 0.80000001
-0.10412 0.27892002 0.79800004
-0.1026 0.27892002 0.79800004
-0.10108 0.27892002 0.79800004
-0.09956 0.27892002 0.79800004
-0.09828572 0.27961904 0.80000001
-0.096761905 0.27961904 0.80000001
-0.095000006 0.27892002 0.79800004
-0.093480006 0.27892002 0.79800004
-0.092190482 0.27961904 0.80000001
-0.090440005 0.27892002 0.79800004
-0.089142852 0.27961904 0.80000001
-0.087619044 0.27961904 0.80000001
-0.086095236 0.27961904 0.80000001
-0.084571429 0.27961904 0.80000001
-0.083047621 0.27961904 0.80000001
-0.081523806 0.27961904 0.80000001
-0.079800002 0.27892002 0.79800004
-0.078280002 0.27892002 0.79800004
-0.076760009 0.27892002 0.79800004
-0.075240009 0.27892002 0.79800004
-0.073627621 0.2785705 0.79700005
-0.072200008 0.27892002 0.79800004
-0.07041429 0.27787143 0.79500002
-0.069073342 0.2785705 0.79700005
-0.067555241 0.2785705 0.79700005
-0.065871432 0.27787143 0.79500002
-0.064195246 0.27717239 0.79300004
-0.062684759 0.27717239 0.79300004
-0.061328575 0.27787143 0.79500002
-0.059814285 0.27787143 0.79500002
-0.0583 0.27787143 0.79500002
-0.056785714 0.27787143 0.79500002
-0.055271428 0.27787143 0.79500002
-0.053757142 0.27787143 0.79500002
-0.052242856 0.27787143 0.79500002
-0.050856192 0.2785705 0.79700005
-0.049338099 0.2785705 0.79700005
-0.047820002 0.2785705 0.79700005
-0.046301909 0.2785705 0.79700005
-0.044783812 0.2785705 0.79700005
-0.043320004 0.27892002 0.79800004
-0.041747622 0.2785705 0.79700005
-0.040229525 0.2785705 0.79700005
-0.038711432 0.2785705 0.79700005
-0.037193336 0.2785705 0.79700005
-0.035675243 0.2785705 0.79700005
-0.034157146 0.2785705 0.79700005
-0.032639049 0.2785705 0.79700005
-0.031120954 0.2785705 0.79700005
-0.029602859 0.2785705 0.79700005
-0.028084764 0.2785705 0.79700005
-0.026566669 0.2785705 0.79700005
-0.025048574 0.2785705 0.79700005
-0.023530476 0.2785705 0.79700005
-0.021653336 0.27402669 0.78400004
-0.020160001 0.27402669 0.78400004
-0.018666666 0.27402669 0.78400004
-0.017282858 0.2757743 0.78900003
-0.015760001 0.27542478 0.78800005
-0.014259049 0.27542478 0.78800005
-0.012758096 0.27542478 0.78800005
-0.011257144 0.27542478 0.78800005
-0.0097561907 0.27542478 0.78800005
-0.0082552386 0.27542478 0.78800005
-0.0067628575 0.2757743 0.78900003
-0.00526 0.2757743 0.78900003
-0.0037666666 0.27647331 0.79100001
-0.0022542858 0.2757743 0.78900003
-0.0007514286 0.2757743 0.78900003
0.00075333333 0.27647331 0.79100001
0.0022542858 0.2757743 0.78900003
0.0037571429 0.2757743 0.78900003
0.00526 0.2757743 0.78900003
0.0067628575 0.2757743 0.78900003
0.0082866671 0.27647331 0.79100001
0.0097933328 0.27647331 0.79100001
0.011299999 0.27647331 0.79100001
0.012806667 0.27647331 0.79100001
0.014313334 0.27647331 0.79100001
0.01582 0.27647331 0.79100001
0.017326668 0.27647331 0.79100001
0.018833334 0.27647331 0.79100001
0.020391429 0.27717239 0.79300004
0.021846667 0.27647331 0.79100001
0.023412382 0.27717239 0.79300004
0.024922857 0.27717239 0.79300004
0.026433334 0.27717239 0.79300004
0.02794381 0.27717239 0.79300004
0.029454287 0.27717239 0.79300004
0.030964762 0.27717239 0.79300004
0.032475241 0.27717239 0.79300004
0.033985715 0.27717239 0.79300004
0.035496194 0.27717239 0.79300004
0.037006669 0.27717239 0.79300004
0.038517144 0.27717239 0.79300004
0.040027622 0.27717239 0.79300004
0.041538097 0.27717239 0.79300004
0.043048576 0.27717239 0.79300004
0.04455905 0.27717239 0.79300004
0.046069525 0.27717239 0.79300004
0.047580004 0.27717239 0.79300004
0.049090479 0.27717239 0.79300004
0.050728571 0.27787143 0.79500002
0.052242856 0.27787143 0.79500002
0.053892381 0.2785705 0.79700005
0.055410478 0.2785705 0.79700005
0.056928575 0.2785705 0.79700005
0.058446668 0.2785705 0.79700005
0.059964765 0.2785705 0.79700005
0.061328575 0.27787143 0.79500002
0.063000955 0.2785705 0.79700005
0.068404764 0.29534763 0.84500003
0.070014283 0.29534763 0.84500003
0.07162381 0.29534763 0.84500003
0.073493339 0.2963962 0.84800005
0.075108573 0.2963962 0.84800005
0.076904759 0.29709524 0.85000002
0.078893334 0.29849333 0.85400003
0.080520004 0.29849333 0.85400003
0.082339056 0.29919243 0.85600007
0.083969526 0.29919243 0.85600007
0.0858 0.29989144 0.85800004
0.087434292 0.29989144 0.85800004
0.089276187 0.30059046 0.86000001
0.091125719 0.30128953 0.86200005
0.092767626 0.30128953 0.86200005
0.094738103 0.30233809 0.86500007
0.096608572 0.30303717 0.86700004
0.098713338 0.30443525 0.87100005
0.10037239 0.30443525 0.87100005
0.10226572 0.3051343 0.87300003
0.10392857 0.3051343 0.87300003
0.10123715 0.29255143 0.83700001
0.10283143 0.29255143 0.83700001
0.10467524 0.2932505 0.83900005
0.10627334 0.2932505 0.83900005
0.10787144 0.2932505 0.83900005
0.10946953 0.2932505 0.83900005
0.11106763 0.2932505 0.83900005
0.11266571 0.2932505 0.83900005
0.12461428 0.31981426 0.91500002
0.12635714 0.31981426 0.91500002
0.12810001 0.31981426 0.91500002
0.12984286 0.31981426 0.91500002
0.13187334 0.32051337 0.91700006
0.13478573 0.32330954 0.92500007
0.13684286 0.32400858 0.92700005
0.13860857 0.32400858 0.92700005
0.14082858 0.32505718 0.93000007
0.2042143 0.33309624 0.95300007
0.20602953 0.33309624 0.95300007
0.20784478 0.33309624 0.95300007
0.20966002 0.33309624 0.95300007
0.21147525 0.33309624 0.95300007
0.21329048 0.33309624 0.95300007
0.21510573 0.33309624 0.95300007
0.2173762 0.33379525 0.95500004
0.21919525 0.33379525 0.95500004
0.22055143 0.33309624 0.95300007
0.22236668 0.33309624 0.95300007
0.22418192 0.33309624 0.95300007
0.22599715 0.33309624 0.95300007
0.22829048 0.33379525 0.95500004
0.23010953 0.33379525 0.95500004
0.23192857 0.33379525 0.95500004
0.23374763 0.33379525 0.95500004
0.23630667 0.33484384 0.95800006
0.23813143 0.33484384 0.95800006
0.2399562 0.33484384 0.95800006
0.27426666 0.26144382 0.74800003
0.27716574 0.26284191 0.75200003
0.27674571 0.2610943 0.74700004
0.27816859 0.2610943 0.74700004
0.2807143 0.2621429 0.75000006
0.28139049 0.26144382 0.74800003
0.28243715 0.2610943 0.74700004
0.28119999 0.25864762 0.74000001
0.28337336 0.25934669 0.74200004
0.28401905 0.25864762 0.74000001
0.28542858 0.25864762 0.74000001
0.28645048 0.2582981 0.73900002
0.2878581 0.2582981 0.73900002
0.28926572 0.2582981 0.73900002
0.29067335 0.2582981 0.73900002
0.29247621 0.25864762 0.74000001
0.29388574 0.25864762 0.74000001
0.29609334 0.25934669 0.74200004
0.29790762 0.25969619 0.74300003
0.29932284 0.25969619 0.74300003
0.30033332 0.25934669 0.74200004
0.30174667 0.25934669 0.74200004
0.30316001 0.25934669 0.74200004
0.30498379 0.25969619 0.74300003
0.30639908 0.25969619 0.74300003
0.3078143 0.25969619 0.74300003
0.30881336 0.25934669 0.74200004
0.31064475 0.25969619 0.74300003
0.31290001 0.26039523 0.74500006
0.31347525 0.25969619 0.74300003
0.31489047 0.25969619 0.74300003
0.31588 0.25934669 0.74200004
0.31729335 0.25934669 0.74200004
0.31784761 0.25864762 0.74000001
0.31925714 0.25864762 0.74000001
-0.23245335 0.22632001 0.64400005
-0.23122668 0.22632001 0.64400005
-0.23000002 0.22632001 0.64400005
-0.22877336 0.22632001 0.64400005
-0.22966668 0.22842857 0.65000004
-0.22842857 0.22842857 0.65000004
-0.22754 0.22878 0.65100002
-0.22525714 0.22772571 0.648
-0.22471429 0.22842857 0.65000004
-0.22244476 0.2273743 0.64700001
-0.22087049 0.22702286 0.64600003
-0.21930002 0.22667144 0.64500004
-0.21773335 0.22632001 0.64400005
-0.21583429 0.22561716 0.64200002
-0.21528001 0.22632001 0.64400005
-0.21438572 0.22667144 0.64500004
-0.21348763 0.22702286 0.64600003
-0.21225715 0.22702286 0.64600003
-0.21102667 0.22702286 0.64600003
-0.21012095 0.2273743 0.64700001
-0.20888858 0.2273743 0.64700001
-0.20733525 0.22702286 0.64600003
-0.20610477 0.22702286 0.64600003
-0.20519143 0.2273743 0.64700001
-0.20395905 0.2273743 0.64700001
-0.20272668 0.2273743 0.64700001
-0.20398572 0.23018572 0.65500003
-0.20273811 0.23018572 0.65500003
-0.2017981 0.23053715 0.65600002
-0.20085429 0.23088856 0.65700001
-0.19960286 0.23088856 0.65700001
-0.19835143 0.23088856 0.65700001
-0.1971 0.23088856 0.65700001
-0.19656287 0.27165431 0.77300006
-0.19509049 0.27165431 0.77300006
-0.19462 0.27306002 0.77700001
-0.19264287 0.27235714 0.77500004
-0.19116667 0.27235714 0.77500004
-0.18969047 0.27235714 0.77500004
-0.1882143 0.27235714 0.77500004
-0.1862562 0.27165431 0.77300006
-0.18454476 0.27130288 0.77200001
-0.18307428 0.27130288 0.77200001
-0.18160382 0.27130288 0.77200001
-0.17966667 0.27059999 0.77000004
-0.17866287 0.27130288 0.77200001
-0.17673334 0.27059999 0.77000004
-0.17526668 0.27059999 0.77000004
-0.17425144 0.27130288 0.77200001
-0.17300478 0.27165431 0.77300006
-0.17153239 0.27165431 0.77300006
-0.17006001 0.27165431 0.77300006
-0.16858763 0.27165431 0.77300006
-0.16711524 0.27165431 0.77300006
-0.16564287 0.27165431 0.77300006
-0.16417049 0.27165431 0.77300006
-0.16311905 0.27235714 0.77500004
-0.16247715 0.27376288 0.77900004
-0.16099335 0.27376288 0.77900004
-0.15950954 0.27376288 0.77900004
-0.15822858 0.27411428 0.78000003
-0.15674286 0.27411428 0.78000003
-0.15565525 0.27481714 0.78200006
-0.15416571 0.27481714 0.78200006
-0.15267619 0.27481714 0.78200006
-0.15157335 0.27552003 0.78400004
-0.15008001 0.27552003 0.78400004
-0.14858668 0.27552003 0.78400004
-0.14709334 0.27552003 0.78400004
-0.14560001 0.27552003 0.78400004
-0.14410667 0.27552003 0.78400004
-0.14261334 0.27552003 0.78400004
-0.14112 0.27552003 0.78400004
-0.13962667 0.27552003 0.78400004
-0.13813335 0.27552003 0.78400004
-0.13664 0.27552003 0.78400004
-0.1358362 0.27692571 0.78800005
-0.13433523 0.27692571 0.78800005
-0.1328343 0.27692571 0.78800005
-0.13133334 0.27692571 0.78800005
-0.12983239 0.27692571 0.78800005
-0.12833142 0.27692571 0.78800005
-0.12699144 0.27727717 0.78900003
-0.12612475 0.27868286 0.79300004
-0.1243 0.27798 0.79100001
-0.12341429 0.27938572 0.79500002
-0.1219 0.27938572 0.79500002
-0.12038572 0.27938572 0.79500002
-0.11917048 0.28008857 0.79700005
-0.11765239 0.28008857 0.79700005
-0.11628 0.28044 0.79800004
-0.11504762 0.28114286 0.80000001
-0.11380763 0.28184572 0.80200005
-0.112 0.28114286 0.80000001
-0.11047619 0.28114286 0.80000001
-0.10895238 0.28114286 0.80000001
-0.10769715 0.28184572 0.80200005
-0.10590477 0.28114286 0.80000001
-0.10438095 0.28114286 0.80000001
-0.10285714 0.28114286 0.80000001
-0.10133334 0.28114286 0.80000001
-0.09956 0.28044 0.79800004
-0.09828572 0.28114286 0.80000001
-0.096761905 0.28114286 0.80000001
-0.095238097 0.28114286 0.80000001
-0.093480006 0.28044 0.79800004
-0.091960005 0.28044 0.79800004
-0.090440005 0.28044 0.79800004
-0.088920005 0.28044 0.79800004
-0.087400004 0.28044 0.79800004
-0.085880004 0.28044 0.79800004
-0.084360003 0.28044 0.79800004
-0.082840003 0.28044 0.79800004
-0.081320003 0.28044 0.79800004
-0.079800002 0.28044 0.79800004
-0.078181908 0.28008857 0.79700005
-0.076663807 0.28008857 0.79700005
-0.075145721 0.28008857 0.79700005
-0.073627621 0.28008857 0.79700005
-0.072109528 0.28008857 0.79700005
-0.070591427 0.28008857 0.79700005
-0.068726666 0.27868286 0.79300004
-0.067385718 0.27938572 0.79500002
-0.065705717 0.27868286 0.79300004
-0.064195246 0.27868286 0.79300004
-0.062684759 0.27868286 0.79300004
-0.061174288 0.27868286 0.79300004
-0.059663814 0.27868286 0.79300004
-0.0583 0.27938572 0.79500002
-0.05664286 0.27868286 0.79300004
-0.055132385 0.27868286 0.79300004
-0.053621907 0.27868286 0.79300004
-0.052111432 0.27868286 0.79300004
-0.050600957 0.27868286 0.79300004
-0.048966669 0.27798 0.79100001
-0.047340002 0.27727717 0.78900003
-0.045953333 0.27798 0.79100001
-0.04455905 0.27868286 0.79300004
-0.043048576 0.27868286 0.79300004
-0.04164286 0.27938572 0.79500002
-0.040128574 0.27938572 0.79500002
-0.038614288 0.27938572 0.79500002
-0.037100002 0.27938572 0.79500002
-0.035585716 0.27938572 0.79500002
-0.034071431 0.27938572 0.79500002
-0.032557145 0.27938572 0.79500002
-0.031042857 0.27938572 0.79500002
-0.029454287 0.27868286 0.79300004
-0.028014285 0.27938572 0.79500002
-0.026133334 0.27552003 0.78400004
-0.024640001 0.27552003 0.78400004
-0.023146667 0.27552003 0.78400004
-0.021653336 0.27552003 0.78400004
-0.020160001 0.27552003 0.78400004
-0.018666666 0.27552003 0.78400004
-0.017217144 0.27622285 0.78600001
-0.01572 0.27622285 0.78600001
-0.014222857 0.27622285 0.78600001
-0.012725715 0.27622285 0.78600001
-0.011228572 0.27622285 0.78600001
-0.0097314287 0.27622285 0.78600001
-0.0082342857 0.27622285 0.78600001
-0.0067542861 0.27692571 0.78800005
-0.0052533336 0.27692571 0.78800005
-0.0037523813 0.27692571 0.78800005
-0.0022514286 0.27692571 0.78800005
-0.0007504762 0.27692571 0.78800005
0.0007504762 0.27692571 0.78800005
0.0022514286 0.27692571 0.78800005
0.0037523813 0.27692571 0.78800005
0.0052533336 0.27692571 0.78800005
0.0067542861 0.27692571 0.78800005
0.0082552386 0.27692571 0.78800005
0.0097685717 0.27727717 0.78900003
0.011271429 0.27727717 0.78900003
0.012774286 0.27727717 0.78900003
0.014313334 0.27798 0.79100001
0.01578 0.27727717 0.78900003
0.017326668 0.27798 0.79100001
0.018833334 0.27798 0.79100001
0.020339999 0.27798 0.79100001
0.021846667 0.27798 0.79100001
0.023353333 0.27798 0.79100001
0.024922857 0.27868286 0.79300004
0.026366666 0.27798 0.79100001
0.027873334 0.27798 0.79100001
0.029380001 0.27798 0.79100001
0.030964762 0.27868286 0.79300004
0.032475241 0.27868286 0.79300004
0.033985715 0.27868286 0.79300004
0.035496194 0.27868286 0.79300004
0.037006669 0.27868286 0.79300004
0.038517144 0.27868286 0.79300004
0.040027622 0.27868286 0.79300004
0.041538097 0.27868286 0.79300004
0.043048576 0.27868286 0.79300004
0.04455905 0.27868286 0.79300004
0.046069525 0.27868286 0.79300004
0.047580004 0.27868286 0.79300004
0.049090479 0.27868286 0.79300004
0.050728571 0.27938572 0.79500002
0.052242856 0.27938572 0.79500002
0.053892381 0.28008857 0.79700005
0.055410478 0.28008857 0.79700005
0.056928575 0.28008857 0.79700005
0.058446668 0.28008857 0.79700005
0.059964765 0.28008857 0.79700005
0.061482862 0.28008857 0.79700005
0.063000955 0.28008857 0.79700005
0.064357147 0.27938572 0.79500002
0.065871432 0.27938572 0.79500002
0.07162381 0.29695717 0.84500003
0.073493339 0.29801145 0.84800005
0.075285718 0.29871428 0.85000002
0.076904759 0.29871428 0.85000002
0.078523815 0.29871428 0.85000002
0.080520004 0.30012 0.85400003
0.082146674 0.30012 0.85400003
0.083773337 0.30012 0.85400003
0.085600004 0.30082285 0.85600007
0.087230489 0.30082285 0.85600007
0.089068577 0.30152574 0.85800004
0.090702862 0.30152574 0.85800004
0.092767626 0.30293143 0.86200005
0.094409525 0.30293143 0.86200005
0.096385725 0.30398574 0.86500007
0.098486669 0.30539143 0.86900002
0.10037239 0.30609429 0.87100005
0.10203143 0.30609429 0.87100005
0.099404767 0.29344288 0.83500004
0.10099524 0.29344288 0.83500004
0.10283143 0.2941457 0.83700001
0.10442571 0.2941457 0.83700001
0.10627334 0.29484856 0.83900005
0.10761429 0.2941457 0.83700001
0.10920857 0.2941457 0.83700001
0.11080286 0.2941457 0.83700001
0.11266571 0.29484856 0.83900005
0.12393334 0.31980002 0.91000003
0.12566666 0.31980002 0.91000003
0.1274 0.31980002 0.91000003
0.12913333 0.31980002 0.91000003
0.13086666 0.31980002 0.91000003
0.13260001 0.31980002 0.91000003
0.13654763 0.32507142 0.92500007
0.13860857 0.32577431 0.92700005
0.14037429 0.32577431 0.92700005
0.20239906 0.33491144 0.95300007
0.2042143 0.33491144 0.95300007
0.20602953 0.33491144 0.95300007
0.20784478 0.33491144 0.95300007
0.20966002 0.33491144 0.95300007
0.21147525 0.33491144 0.95300007
0.21329048 0.33491144 0.95300007
0.21510573 0.33491144 0.95300007
0.2173762 0.33561429 0.95500004
0.21919525 0.33561429 0.95500004
0.22055143 0.33491144 0.95300007
0.22236668 0.33491144 0.95300007
0.22418192 0.33491144 0.95300007
0.22599715 0.33491144 0.95300007
0.22829048 0.33561429 0.95500004
0.23010953 0.33561429 0.95500004
0.23192857 0.33561429 0.95500004
0.23374763 0.33561429 0.95500004
0.23630667 0.33666858 0.95800006
0.23813143 0.33666858 0.95800006
0.24070762 0.33772287 0.96100003
0.27716574 0.2642743 0.75200003
0.27600479 0.2618143 0.74500006
0.27742383 0.2618143 0.74500006
0.2788429 0.2618143 0.74500006
0.28026193 0.2618143 0.74500006
0.28168097 0.2618143 0.74500006
0.28119999 0.26005715 0.74000001
0.28260952 0.26005715 0.74000001
0.28363526 0.25970572 0.73900002
0.28504285 0.25970572 0.73900002
0.28567526 0.25900286 0.73700005
0.28707907 0.25900286 0.73700005
0.28809145 0.25865144 0.73600006
0.28988668 0.25900286 0.73700005
0.29129049 0.25900286 0.73700005
0.2926943 0.25900286 0.73700005
0.29489622 0.25970572 0.73900002
0.29670477 0.26005715 0.74000001
0.29811427 0.26005715 0.74000001
0.30033332 0.26076001 0.74200004
0.30174667 0.26076001 0.74200004
0.30234283 0.26005715 0.74000001
0.30457336 0.26076001 0.74200004
0.30598667 0.26076001 0.74200004
0.30740002 0.26076001 0.74200004
0.30798095 0.26005715 0.74000001
0.31022668 0.26076001 0.74200004
0.31164002 0.26076001 0.74200004
0.31305334 0.26076001 0.74200004
0.31446669 0.26076001 0.74200004
0.31588 0.26076001 0.74200004
0.31729335 0.26076001 0.74200004
0.31784761 0.26005715 0.74000001
0.31925714 0.26005715 0.74000001
0.32023332 0.25970572 0.73900002
0.32164097 0.25970572 0.73900002
-0.23490669 0.22754669 0.64400005
-0.23368001 0.22754669 0.64400005
-0.23245335 0.22754669 0.64400005
-0.23050858 0.22684 0.64200002
-0.23000002 0.22754669 0.64400005
-0.22877336 0.22754669 0.64400005
-0.22684 0.22684 0.64200002
-0.22561716 0.22684 0.64200002
-0.22719049 0.22966668 0.65000004
-0.22490951 0.22860667 0.64700001
-0.22471429 0.22966668 0.65000004
-0.22175716 0.22790001 0.64500004
-0.22052857 0.22790001 0.64500004
-0.21896002 0.22754669 0.64400005
-0.21773335 0.22754669 0.64400005
-0.21583429 0.22684 0.64200002
-0.21461144 0.22684 0.64200002
-0.21405335 0.22754669 0.64400005
-0.21315716 0.22790001 0.64500004
-0.21192858 0.22790001 0.64500004
-0.21102667 0.22825335 0.64600003
-0.20979621 0.22825335 0.64600003
-0.20856571 0.22825335 0.64600003
-0.20733525 0.22825335 0.64600003
-0.20610477 0.22825335 0.64600003
-0.20487429 0.22825335 0.64600003
-0.20364381 0.22825335 0.64600003
-0.20116 0.22684 0.64200002
-0.20056 0.22754669 0.64400005
-0.19933335 0.22754669 0.64400005
-0.20026001 0.23002 0.65100002
-0.19902001 0.23002 0.65100002
-0.19778 0.23002 0.65100002
-0.19654 0.23002 0.65100002
-0.1953 0.23002 0.65100002
-0.19803524 0.27312669 0.77300006
-0.19630858 0.27277336 0.77200001
-0.19559525 0.27383336 0.77500004
-0.19411905 0.27383336 0.77500004
-0.19264287 0.27383336 0.77500004
-0.19116667 0.27383336 0.77500004
-0.18969047 0.27383336 0.77500004
-0.1882143 0.27383336 0.77500004
-0.1862562 0.27312669 0.77300006
-0.18478382 0.27312669 0.77300006
-0.18331145 0.27312669 0.77300006
-0.18183906 0.27312669 0.77300006
-0.18036668 0.27312669 0.77300006
-0.1788943 0.27312669 0.77300006
-0.17719238 0.27277336 0.77200001
-0.17572191 0.27277336 0.77200001
-0.17447716 0.27312669 0.77300006
-0.17300478 0.27312669 0.77300006
-0.17153239 0.27312669 0.77300006
-0.17006001 0.27312669 0.77300006
-0.16902381 0.27383336 0.77500004
-0.16754761 0.27383336 0.77500004
-0.16564287 0.27312669 0.77300006
-0.16417049 0.27312669 0.77300006
-0.16311905 0.27383336 0.77500004
-0.16247715 0.27524668 0.77900004
-0.16099335 0.27524668 0.77900004
-0.15950954 0.27524668 0.77900004
-0.15822858 0.27560002 0.78000003
-0.15714477 0.27630666 0.78200006
-0.15565525 0.27630666 0.78200006
-0.15416571 0.27630666 0.78200006
-0.15267619 0.27630666 0.78200006
-0.15157335 0.27701333 0.78400004
-0.15008001 0.27701333 0.78400004
-0.14858668 0.27701333 0.78400004
-0.14746857 0.27772 0.78600001
-0.14560001 0.27701333 0.78400004
-0.14410667 0.27701333 0.78400004
-0.14261334 0.27701333 0.78400004
-0.14112 0.27701333 0.78400004
-0.13962667 0.27701333 0.78400004
-0.13813335 0.27701333 0.78400004
-0.13733715 0.27842668 0.78800005
-0.1358362 0.27842668 0.78800005
-0.13433523 0.27842668 0.78800005
-0.13300286 0.27878001 0.78900003
-0.13150001 0.27878001 0.78900003
-0.12999715 0.27878001 0.78900003
-0.12882 0.27948666 0.79100001
-0.12731333 0.27948666 0.79100001
-0.12676096 0.28160667 0.79700005
-0.12524286 0.28160667 0.79700005
-0.12372477 0.28160667 0.79700005
-0.12220667 0.28160667 0.79700005
-0.12068858 0.28160667 0.79700005
-0.11917048 0.28160667 0.79700005
-0.11765239 0.28160667 0.79700005
-0.11628 0.28196001 0.79800004
-0.11533524 0.28337336 0.80200005
-0.11380763 0.28337336 0.80200005
-0.11228 0.28337336 0.80200005
-0.11075239 0.28337336 0.80200005
-0.10922477 0.28337336 0.80200005
-0.10769715 0.28337336 0.80200005
-0.10616953 0.28337336 0.80200005
-0.10438095 0.28266668 0.80000001
-0.10285714 0.28266668 0.80000001
-0.10133334 0.28266668 0.80000001
-0.099809527 0.28266668 0.80000001
-0.09828572 0.28266668 0.80000001
-0.096761905 0.28266668 0.80000001
-0.095238097 0.28266668 0.80000001
-0.093480006 0.28196001 0.79800004
-0.091960005 0.28196001 0.79800004
-0.090440005 0.28196001 0.79800004
-0.088920005 0.28196001 0.79800004
-0.087400004 0.28196001 0.79800004
-0.085880004 0.28196001 0.79800004
-0.084254287 0.28160667 0.79700005
-0.082736202 0.28160667 0.79700005
-0.081218101 0.28160667 0.79700005
-0.079700001 0.28160667 0.79700005
-0.077985719 0.2809 0.79500002
-0.076471426 0.2809 0.79500002
-0.074957147 0.2809 0.79500002
-0.073442854 0.2809 0.79500002
-0.071928576 0.2809 0.79500002
-0.070237145 0.28019333 0.79300004
-0.068553336 0.27948666 0.79100001
-0.067046665 0.27948666 0.79100001
-0.065540001 0.27948666 0.79100001
-0.064033337 0.27948666 0.79100001
-0.062526666 0.27948666 0.79100001
-0.061019998 0.27948666 0.79100001
-0.059513334 0.27948666 0.79100001
-0.058153339 0.28019333 0.79300004
-0.056499999 0.27948666 0.79100001
-0.054993331 0.27948666 0.79100001
-0.053351428 0.27878001 0.78900003
-0.05198 0.27948666 0.79100001
-0.050345715 0.27878001 0.78900003
-0.048657142 0.27772 0.78600001
-0.047040001 0.27701333 0.78400004
-0.045546666 0.27701333 0.78400004
-0.044165716 0.27772 0.78600001
-0.042831432 0.27878001 0.78900003
-0.041276194 0.27842668 0.78800005
-0.039775241 0.27842668 0.78800005
-0.038274288 0.27842668 0.78800005
-0.036773335 0.27842668 0.78800005
-0.035272382 0.27842668 0.78800005
-0.033685714 0.27772 0.78600001
-0.032188572 0.27772 0.78600001
-0.030613335 0.27701333 0.78400004
-0.029194286 0.27772 0.78600001
-0.027626667 0.27701333 0.78400004
-0.026133334 0.27701333 0.78400004
-0.024640001 0.27701333 0.78400004
-0.023205714 0.27772 0.78600001
-0.021653336 0.27701333 0.78400004
-0.020160001 0.27701333 0.78400004
-0.018666666 0.27701333 0.78400004
-0.017173335 0.27701333 0.78400004
-0.01568 0.27701333 0.78400004
-0.014186667 0.27701333 0.78400004
-0.012693334 0.27701333 0.78400004
-0.011200001 0.27701333 0.78400004
-0.0097314287 0.27772 0.78600001
-0.0082342857 0.27772 0.78600001
-0.0067542861 0.27842668 0.78800005
-0.0052533336 0.27842668 0.78800005
-0.0037523813 0.27842668 0.78800005
-0.0022457142 0.27772 0.78600001
-0.00074857142 0.27772 0.78600001
0.0007504762 0.27842668 0.78800005
0.0022457142 0.27772 0.78600001
0.0037428571 0.27772 0.78600001
0.0052533336 0.27842668 0.78800005
0.0067542861 0.27842668 0.78800005
0.0082657151 0.27878001 0.78900003
0.0097685717 0.27878001 0.78900003
0.011271429 0.27878001 0.78900003
0.012774286 0.27878001 0.78900003
0.014277143 0.27878001 0.78900003
0.01578 0.27878001 0.78900003
0.017282858 0.27878001 0.78900003
0.018833334 0.27948666 0.79100001
0.020339999 0.27948666 0.79100001
0.021846667 0.27948666 0.79100001
0.023353333 0.27948666 0.79100001
0.02486 0.27948666 0.79100001
0.026366666 0.27948666 0.79100001
0.027873334 0.27948666 0.79100001
0.029380001 0.27948666 0.79100001
0.030886667 0.27948666 0.79100001
0.032393333 0.27948666 0.79100001
0.033985715 0.28019333 0.79300004
0.035496194 0.28019333 0.79300004
0.037006669 0.28019333 0.79300004
0.038517144 0.28019333 0.79300004
0.040027622 0.28019333 0.79300004
0.041538097 0.28019333 0.79300004
0.043048576 0.28019333 0.79300004
0.04455905 0.28019333 0.79300004
0.046069525 0.28019333 0.79300004
0.047580004 0.28019333 0.79300004
0.049090479 0.28019333 0.79300004
0.050728571 0.2809 0.79500002
0.052242856 0.2809 0.79500002
0.053892381 0.28160667 0.79700005
0.055410478 0.28160667 0.79700005
0.056928575 0.28160667 0.79700005
0.0583 0.2809 0.79500002
0.059964765 0.28160667 0.79700005
0.061328575 0.2809 0.79500002
0.062842853 0.2809 0.79500002
0.064357147 0.2809 0.79500002
0.065871432 0.2809 0.79500002
0.067216195 0.28019333 0.79300004
0.068726666 0.28019333 0.79300004
0.075285718 0.30033332 0.85000002
0.076904759 0.30033332 0.85000002
0.078708574 0.30103999 0.85200006
0.080331437 0.30103999 0.85200006
0.082146674 0.30174667 0.85400003
0.083773337 0.30174667 0.85400003
0.085600004 0.30245334 0.85600007
0.087230489 0.30245334 0.85600007
0.088860959 0.30245334 0.85600007
0.090702862 0.30316001 0.85800004
0.092552379 0.30386665 0.86000001
0.094190478 0.30386665 0.86000001
0.096051432 0.30457336 0.86200005
0.097693332 0.30457336 0.86200005
0.095762856 0.29362002 0.83100003
0.097345717 0.29362002 0.83100003
0.098928571 0.29362002 0.83100003
0.10075334 0.29432669 0.83300006
0.10258572 0.29503334 0.83500004
0.10442571 0.29574001 0.83700001
0.10602 0.29574001 0.83700001
0.10735714 0.29503334 0.83500004
0.10920857 0.29574001 0.83700001
0.1105381 0.29503334 0.83500004
0.11239714 0.29574001 0.83700001
0.11399143 0.29574001 0.83700001
0.12470001 0.31906003 0.90300006
0.1267 0.31976667 0.90500003
0.12814002 0.31906003 0.90300006
0.13014762 0.31976667 0.90500003
0.13187143 0.31976667 0.90500003
0.13433333 0.32153335 0.91000003
0.13606668 0.32153335 0.91000003
0.19918571 0.33743334 0.95500004
0.20058383 0.3367267 0.95300007
0.20239906 0.3367267 0.95300007
0.2042143 0.3367267 0.95300007
0.20602953 0.3367267 0.95300007
0.20784478 0.3367267 0.95300007
0.20966002 0.3367267 0.95300007
0.21147525 0.3367267 0.95300007
0.21329048 0.3367267 0.95300007
0.21555714 0.33743334 0.95500004
0.2173762 0.33743334 0.95500004
0.2187362 0.3367267 0.95300007
0.22055143 0.3367267 0.95300007
0.22236668 0.3367267 0.95300007
0.22418192 0.3367267 0.95300007
0.22599715 0.3367267 0.95300007
0.22829048 0.33743334 0.95500004
0.23010953 0.33743334 0.95500004
0.23192857 0.33743334 0.95500004
0.23374763 0.33743334 0.95500004
0.23556668 0.33743334 0.95500004
0.23813143 0.33849335 0.95800006
0.2399562 0.33849335 0.95800006
0.27600479 0.26323336 0.74500006
0.27742383 0.26323336 0.74500006
0.2788429 0.26323336 0.74500006
0.27950954 0.26252669 0.74300003
0.28092477 0.26252669 0.74300003
0.28082001 0.26111335 0.73900002
0.28222764 0.26111335 0.73900002
0.28286764 0.2604067 0.73700005
0.28427145 0.2604067 0.73700005
0.28528765 0.26005337 0.73600006
0.28668955 0.26005337 0.73600006
0.28730857 0.25934666 0.73400003
0.28949335 0.26005337 0.73600006
0.29129049 0.2604067 0.73700005
0.29229715 0.26005337 0.73600006
0.29409811 0.2604067 0.73700005
0.29550192 0.2604067 0.73700005
0.29771143 0.26111335 0.73900002
0.29911906 0.26111335 0.73900002
0.30052668 0.26111335 0.73900002
0.3019343 0.26111335 0.73900002
0.30375239 0.26146668 0.74000001
0.30516192 0.26146668 0.74000001
0.30657142 0.26146668 0.74000001
0.3075648 0.26111335 0.73900002
0.30939049 0.26146668 0.74000001
0.31079999 0.26146668 0.74000001
0.31305334 0.26217335 0.74200004
0.31446669 0.26217335 0.74200004
0.31588 0.26217335 0.74200004
0.31729335 0.26217335 0.74200004
0.31784761 0.26146668 0.74000001
0.31925714 0.26146668 0.74000001
0.32023332 0.26111335 0.73900002
0.32164097 0.26111335 0.73900002
-0.23417714 0.22806285 0.64200002
-0.23295429 0.22806285 0.64200002
-0.23173143 0.22806285 0.64200002
-0.23050858 0.22806285 0.64200002
-0.22928572 0.22806285 0.64200002
-0.22806285 0.22806285 0.64200002
-0.22684 0.22806285 0.64200002
-0.22526571 0.22770764 0.64100003
-0.22404477 0.22770764 0.64100003
-0.22282381 0.22770764 0.64100003
-0.22160287 0.22770764 0.64100003
-0.22072572 0.22806285 0.64200002
-0.21950287 0.22806285 0.64200002
-0.21828 0.22806285 0.64200002
-0.21705714 0.22806285 0.64200002
-0.2154981 0.22770764 0.64100003
-0.21461144 0.22806285 0.64200002
-0.21405335 0.22877336 0.64400005
-0.21315716 0.22912858 0.64500004
-0.21192858 0.22912858 0.64500004
-0.21102667 0.22948381 0.64600003
-0.20979621 0.22948381 0.64600003
-0.20856571 0.22948381 0.64600003
-0.20701431 0.22912858 0.64500004
-0.20578572 0.22912858 0.64500004
-0.20455717 0.22912858 0.64500004
-0.20332858 0.22912858 0.64500004
-0.20116 0.22806285 0.64200002
-0.20056 0.22877336 0.64400005
-0.19933335 0.22877336 0.64400005
-0.1984143 0.22912858 0.64500004
-0.19871429 0.23090477 0.65000004
-0.19747619 0.23090477 0.65000004
-0.19654 0.23126002 0.65100002
-0.1953 0.23126002 0.65100002
-0.19406 0.23126002 0.65100002
-0.19282001 0.23126002 0.65100002
-0.20002382 0.27530953 0.77500004
-0.19854762 0.27530953 0.77500004
-0.19656287 0.27459905 0.77300006
-0.19433334 0.27353334 0.77000004
-0.19336763 0.2742438 0.77200001
-0.19189714 0.2742438 0.77200001
-0.19116667 0.27530953 0.77500004
-0.18969047 0.27530953 0.77500004
-0.18870001 0.27602002 0.77700001
-0.1867381 0.27530953 0.77500004
-0.18478382 0.27459905 0.77300006
-0.18331145 0.27459905 0.77300006
-0.18183906 0.27459905 0.77300006
-0.18036668 0.27459905 0.77300006
-0.1788943 0.27459905 0.77300006
-0.17719238 0.2742438 0.77200001
-0.17594953 0.27459905 0.77300006
-0.17447716 0.27459905 0.77300006
-0.17345239 0.27530953 0.77500004
-0.17153239 0.27459905 0.77300006
-0.17006001 0.27459905 0.77300006
-0.16902381 0.27530953 0.77500004
-0.16754761 0.27530953 0.77500004
-0.16607144 0.27530953 0.77500004
-0.16417049 0.27459905 0.77300006
-0.16311905 0.27530953 0.77500004
-0.16247715 0.27673048 0.77900004
-0.1612 0.27708572 0.78000003
-0.1597143 0.27708572 0.78000003
-0.15822858 0.27708572 0.78000003
-0.15714477 0.27779621 0.78200006
-0.15565525 0.27779621 0.78200006
-0.15416571 0.27779621 0.78200006
-0.15267619 0.27779621 0.78200006
-0.15157335 0.27850667 0.78400004
-0.15008001 0.27850667 0.78400004
-0.14858668 0.27850667 0.78400004
-0.14746857 0.27921715 0.78600001
-0.14597143 0.27921715 0.78600001
-0.14484192 0.27992764 0.78800005
-0.14297715 0.27921715 0.78600001
-0.14148 0.27921715 0.78600001
-0.13962667 0.27850667 0.78400004
-0.13813335 0.27850667 0.78400004
-0.13664 0.27850667 0.78400004
-0.13997333 0.28845334 0.81200004
-0.13484667 0.28099334 0.79100001
-0.13334 0.28099334 0.79100001
-0.13183333 0.28099334 0.79100001
-0.13131525 0.28312477 0.79700005
-0.12996 0.28348002 0.79800004
-0.12843999 0.28348002 0.79800004
-0.12692 0.28348002 0.79800004
-0.12540001 0.28348002 0.79800004
-0.12388001 0.28348002 0.79800004
-0.12236001 0.28348002 0.79800004
-0.12084001 0.28348002 0.79800004
-0.11932001 0.28348002 0.79800004
-0.1178 0.28348002 0.79800004
-0.11628 0.28348002 0.79800004
-0.11533524 0.28490096 0.80200005
-0.11352381 0.28419048 0.80000001
-0.11228 0.28490096 0.80200005
-0.11075239 0.28490096 0.80200005
-0.10922477 0.28490096 0.80200005
-0.10769715 0.28490096 0.80200005
-0.10616953 0.28490096 0.80200005
-0.10438095 0.28419048 0.80000001
-0.10285714 0.28419048 0.80000001
-0.10108 0.28348002 0.79800004
-0.09956 0.28348002 0.79800004
-0.09804 0.28348002 0.79800004
-0.096520007 0.28348002 0.79800004
-0.095000006 0.28348002 0.79800004
-0.093480006 0.28348002 0.79800004
-0.091960005 0.28348002 0.79800004
-0.090326667 0.28312477 0.79700005
-0.088808581 0.28312477 0.79700005
-0.087290481 0.28312477 0.79700005
-0.085772388 0.28312477 0.79700005
-0.084042862 0.28241429 0.79500002
-0.082528569 0.28241429 0.79500002
-0.08101429 0.28241429 0.79500002
-0.079700001 0.28312477 0.79700005
-0.077789523 0.2817038 0.79300004
-0.076279052 0.2817038 0.79300004
-0.074768573 0.2817038 0.79300004
-0.073258102 0.2817038 0.79300004
-0.071747623 0.2817038 0.79300004
-0.07006 0.28099334 0.79100001
-0.068380006 0.28028288 0.78900003
-0.067046665 0.28099334 0.79100001
-0.065374292 0.28028288 0.78900003
-0.063871428 0.28028288 0.78900003
-0.062368572 0.28028288 0.78900003
-0.061019998 0.28099334 0.79100001
-0.059362859 0.28028288 0.78900003
-0.058006667 0.28099334 0.79100001
-0.056357145 0.28028288 0.78900003
-0.054784764 0.27992764 0.78800005
-0.053148571 0.27921715 0.78600001
-0.051651429 0.27921715 0.78600001
-0.05002667 0.27850667 0.78400004
-0.048533335 0.27850667 0.78400004
-0.046920002 0.27779621 0.78200006
-0.045430478 0.27779621 0.78200006
-0.044053335 0.27850667 0.78400004
-0.042560004 0.27850667 0.78400004
-0.041066669 0.27850667 0.78400004
-0.039573334 0.27850667 0.78400004
-0.038079999 0.27850667 0.78400004
-0.036586668 0.27850667 0.78400004
-0.035093337 0.27850667 0.78400004
-0.033600003 0.27850667 0.78400004
-0.032106668 0.27850667 0.78400004
-0.030613335 0.27850667 0.78400004
-0.029120002 0.27850667 0.78400004
-0.027626667 0.27850667 0.78400004
-0.026133334 0.27850667 0.78400004
-0.024640001 0.27850667 0.78400004
-0.023146667 0.27850667 0.78400004
-0.021653336 0.27850667 0.78400004
-0.020160001 0.27850667 0.78400004
-0.018666666 0.27850667 0.78400004
-0.017173335 0.27850667 0.78400004
-0.01568 0.27850667 0.78400004
-0.014186667 0.27850667 0.78400004
-0.012693334 0.27850667 0.78400004
-0.011200001 0.27850667 0.78400004
-0.0097066667 0.27850667 0.78400004
-0.0082133338 0.27850667 0.78400004
-0.0067371433 0.27921715 0.78600001
-0.0052399999 0.27921715 0.78600001
-0.0037428571 0.27921715 0.78600001
-0.0022457142 0.27921715 0.78600001
-0.00074857142 0.27921715 0.78600001
0.00074857142 0.27921715 0.78600001
0.0022457142 0.27921715 0.78600001
0.0037428571 0.27921715 0.78600001
0.0052399999 0.27921715 0.78600001
0.0067371433 0.27921715 0.78600001
0.0082552386 0.27992764 0.78800005
0.0097561907 0.27992764 0.78800005
0.011257144 0.27992764 0.78800005
0.012774286 0.28028288 0.78900003
0.014277143 0.28028288 0.78900003
0.01578 0.28028288 0.78900003
0.017282858 0.28028288 0.78900003
0.018785715 0.28028288 0.78900003
0.020339999 0.28099334 0.79100001
0.021846667 0.28099334 0.79100001
0.023353333 0.28099334 0.79100001
0.02486 0.28099334 0.79100001
0.026366666 0.28099334 0.79100001
0.027873334 0.28099334 0.79100001
0.029380001 0.28099334 0.79100001
0.030886667 0.28099334 0.79100001
0.032393333 0.28099334 0.79100001
0.0339 0.28099334 0.79100001
0.035496194 0.2817038 0.79300004
0.036913332 0.28099334 0.79100001
0.038419999 0.28099334 0.79100001
0.039926667 0.28099334 0.79100001
0.041433334 0.28099334 0.79100001
0.042940002 0.28099334 0.79100001
0.04455905 0.2817038 0.79300004
0.046069525 0.2817038 0.79300004
0.047580004 0.2817038 0.79300004
0.049090479 0.2817038 0.79300004
0.050728571 0.28241429 0.79500002
0.052242856 0.28241429 0.79500002
0.053892381 0.28312477 0.79700005
0.055410478 0.28312477 0.79700005
0.056785714 0.28241429 0.79500002
0.0583 0.28241429 0.79500002
0.059814285 0.28241429 0.79500002
0.061328575 0.28241429 0.79500002
0.062842853 0.28241429 0.79500002
0.064357147 0.28241429 0.79500002
0.065871432 0.28241429 0.79500002
0.067216195 0.2817038 0.79300004
0.068900004 0.28241429 0.79500002
0.070237145 0.2817038 0.79300004
0.077266671 0.30337337 0.85400003
0.078708574 0.30266288 0.85200006
0.080331437 0.30266288 0.85200006
0.081954293 0.30266288 0.85200006
0.083577149 0.30266288 0.85200006
0.085400008 0.30337337 0.85400003
0.087026671 0.30337337 0.85400003
0.088860959 0.30408382 0.85600007
0.090491436 0.30408382 0.85600007
0.092121907 0.30408382 0.85600007
0.094409525 0.30621526 0.86200005
0.089142852 0.28419048 0.80000001
0.090666667 0.28419048 0.80000001
0.095762856 0.29520285 0.83100003
0.097345717 0.29520285 0.83100003
0.09869048 0.29449239 0.82900006
0.10051143 0.29520285 0.83100003
0.10209429 0.29520285 0.83100003
0.10417619 0.29662383 0.83500004
0.10602 0.29733431 0.83700001
0.10735714 0.29662383 0.83500004
0.10894762 0.29662383 0.83500004
0.1105381 0.29662383 0.83500004
0.11239714 0.29733431 0.83700001
0.12270762 0.32006952 0.90100002
0.12442381 0.32006952 0.90100002
0.12614 0.32006952 0.90100002
0.12785619 0.32006952 0.90100002
0.12957239 0.32006952 0.90100002
0.13085143 0.31900382 0.89800006
0.13330001 0.32078004 0.90300006
0.13502 0.32078004 0.90300006
0.1967762 0.34138381 0.96100003
0.19798668 0.34031811 0.95800006
0.19918571 0.33925241 0.95500004
0.20100477 0.33925241 0.95500004
0.20239906 0.33854192 0.95300007
0.2042143 0.33854192 0.95300007
0.20602953 0.33854192 0.95300007
0.20828095 0.33925241 0.95500004
0.21010001 0.33925241 0.95500004
0.21191905 0.33925241 0.95500004
0.2137381 0.33925241 0.95500004
0.21555714 0.33925241 0.95500004
0.2173762 0.33925241 0.95500004
0.21919525 0.33925241 0.95500004
0.22055143 0.33854192 0.95300007
0.22236668 0.33854192 0.95300007
0.22418192 0.33854192 0.95300007
0.22599715 0.33854192 0.95300007
0.22781239 0.33854192 0.95300007
0.23010953 0.33925241 0.95500004
0.23192857 0.33925241 0.95500004
0.23448192 0.34031811 0.95800006
0.23630667 0.34031811 0.95800006
0.23813143 0.34031811 0.95800006
0.24070762 0.34138381 0.96100003
0.27600479 0.2646524 0.74500006
0.27742383 0.2646524 0.74500006
0.27959144 0.26536286 0.74700004
0.28026193 0.2646524 0.74500006
0.28168097 0.2646524 0.74500006
0.28082001 0.26252094 0.73900002
0.28222764 0.26252094 0.73900002
0.28248385 0.26145524 0.73600006
0.28388572 0.26145524 0.73600006
0.28451237 0.26074478 0.73400003
0.28591049 0.26074478 0.73400003
0.28730857 0.26074478 0.73400003
0.28949335 0.26145524 0.73600006
0.29089525 0.26145524 0.73600006
0.29150286 0.26074478 0.73400003
0.29369909 0.26145524 0.73600006
0.29510096 0.26145524 0.73600006
0.29650289 0.26145524 0.73600006
0.29830953 0.26181051 0.73700005
0.29971337 0.26181051 0.73700005
0.30070859 0.26145524 0.73600006
0.30211049 0.26145524 0.73600006
0.30351239 0.26145524 0.73600006
0.30615714 0.26252094 0.73900002
0.3075648 0.26252094 0.73900002
0.30897239 0.26252094 0.73900002
0.31038001 0.26252094 0.73900002
0.31220952 0.26287618 0.74000001
0.31361905 0.26287618 0.74000001
0.31502858 0.26287618 0.74000001
0.31643811 0.26287618 0.74000001
0.31784761 0.26287618 0.74000001
0.31925714 0.26287618 0.74000001
0.32023332 0.26252094 0.73900002
0.32164097 0.26252094 0.73900002
0.32173717 0.26145524 0.73600006
-0.23514858 0.22785714 0.63800001
-0.23393333 0.22785714 0.63800001
-0.23308288 0.22821429 0.63900006
-0.23222858 0.22857144 0.64000005
-0.23100953 0.22857144 0.64000005
-0.22979049 0.22857144 0.64000005
-0.22857144 0.22857144 0.64000005
-0.2273524 0.22857144 0.64000005
-0.22542666 0.22785714 0.63800001
-0.22421142 0.22785714 0.63800001
-0.22299621 0.22785714 0.63800001
-0.22004287 0.22607143 0.63300002
-0.21849144 0.2257143 0.63200003
-0.21625619 0.22464286 0.62900001
-0.2150581 0.22464286 0.62900001
-0.21794 0.22892858 0.64100003
-0.21671905 0.22892858 0.64100003
-0.2154981 0.22892858 0.64100003
-0.21394287 0.22857144 0.64000005
-0.21305621 0.22892858 0.64100003
-0.21183525 0.22892858 0.64100003
-0.21160002 0.23000002 0.64400005
-0.21070002 0.23035716 0.64500004
-0.20947143 0.23035716 0.64500004
-0.20824286 0.23035716 0.64500004
-0.20605142 0.22928572 0.64200002
-0.20482858 0.22928572 0.64200002
-0.20360573 0.22928572 0.64200002
-0.20175239 0.22857144 0.64000005
-0.20053335 0.22857144 0.64000005
-0.19962572 0.22892858 0.64100003
-0.19933335 0.23000002 0.64400005
-0.1984143 0.23035716 0.64500004
-0.19688001 0.23000002 0.64400005
-0.19595715 0.23035716 0.64500004
-0.19472858 0.23035716 0.64500004
-0.19350001 0.23035716 0.64500004
-0.19406 0.23250002 0.65100002
-0.19282001 0.23250002 0.65100002
-0.22893049 0.31678572 0.88700002
-0.19854762 0.2767857 0.77500004
-0.19580001 0.27500001 0.77000004
-0.19433334 0.27500001 0.77000004
-0.19286667 0.27500001 0.77000004
-0.19140001 0.27500001 0.77000004
-0.18993334 0.27500001 0.77000004
-0.19017999 0.2775 0.77700001
-0.1882143 0.2767857 0.77500004
-0.1867381 0.2767857 0.77500004
-0.18526191 0.2767857 0.77500004
-0.18378572 0.2767857 0.77500004
-0.18230952 0.2767857 0.77500004
-0.18083334 0.2767857 0.77500004
-0.1788943 0.27607146 0.77300006
-0.17742191 0.27607146 0.77300006
-0.17594953 0.27607146 0.77300006
-0.17447716 0.27607146 0.77300006
-0.17300478 0.27607146 0.77300006
-0.17153239 0.27607146 0.77300006
-0.17006001 0.27607146 0.77300006
-0.16858763 0.27607146 0.77300006
-0.16754761 0.2767857 0.77500004
-0.16607144 0.2767857 0.77500004
-0.16417049 0.27607146 0.77300006
-0.16311905 0.2767857 0.77500004
-0.16268572 0.27857143 0.78000003
-0.16161335 0.27928573 0.78200006
-0.16012383 0.27928573 0.78200006
-0.15863429 0.27928573 0.78200006
-0.15714477 0.27928573 0.78200006
-0.15565525 0.27928573 0.78200006
-0.15416571 0.27928573 0.78200006
-0.15267619 0.27928573 0.78200006
-0.15118667 0.27928573 0.78200006
-0.15008001 0.28 0.78400004
-0.14858668 0.28 0.78400004
-0.14709334 0.28 0.78400004
-0.14597143 0.28071427 0.78600001
-0.14484192 0.28142861 0.78800005
-0.14297715 0.28071427 0.78600001
-0.14148 0.28071427 0.78600001
-0.14496952 0.29071429 0.81400001
-0.14341904 0.29071429 0.81400001
-0.14186858 0.29071429 0.81400001
-0.13997333 0.28999999 0.81200004
-0.13842668 0.28999999 0.81200004
-0.13451999 0.285 0.79800004
-0.133 0.285 0.79800004
-0.13147999 0.285 0.79800004
-0.12996 0.285 0.79800004
-0.1287619 0.28571427 0.80000001
-0.12723809 0.28571427 0.80000001
-0.12571429 0.28571427 0.80000001
-0.12419049 0.28571427 0.80000001
-0.12266667 0.28571427 0.80000001
-0.12144572 0.2864286 0.80200005
-0.1199181 0.2864286 0.80200005
-0.11809523 0.28571427 0.80000001
-0.11657143 0.28571427 0.80000001
-0.11533524 0.2864286 0.80200005
-0.11380763 0.2864286 0.80200005
-0.11228 0.2864286 0.80200005
-0.11047619 0.28571427 0.80000001
-0.10895238 0.28571427 0.80000001
-0.10742857 0.28571427 0.80000001
-0.10590477 0.28571427 0.80000001
-0.10438095 0.28571427 0.80000001
-0.1026 0.285 0.79800004
-0.10108 0.285 0.79800004
-0.09956 0.285 0.79800004
-0.09804 0.285 0.79800004
-0.096520007 0.285 0.79800004
-0.095000006 0.285 0.79800004
-0.09336286 0.28464288 0.79700005
-0.091844767 0.28464288 0.79700005
-0.090326667 0.28464288 0.79700005
-0.088808581 0.28464288 0.79700005
-0.087290481 0.28464288 0.79700005
-0.08555714 0.28392857 0.79500002
-0.083831429 0.2832143 0.79300004
-0.082320958 0.2832143 0.79300004
-0.08081048 0.2832143 0.79300004
-0.079300009 0.2832143 0.79300004
-0.077593334 0.2825 0.79100001
-0.076086663 0.2825 0.79100001
-0.074579999 0.2825 0.79100001
-0.073073328 0.2825 0.79100001
-0.071385719 0.2817857 0.78900003
-0.069882862 0.2817857 0.78900003
-0.068293341 0.28142861 0.78800005
-0.066877142 0.2817857 0.78900003
-0.065374292 0.2817857 0.78900003
-0.063790478 0.28142861 0.78800005
-0.062368572 0.2817857 0.78900003
-0.060865719 0.2817857 0.78900003
-0.059287623 0.28142861 0.78800005
-0.057860002 0.2817857 0.78900003
-0.056142855 0.28071427 0.78600001
-0.054506667 0.28 0.78400004
-0.053013336 0.28 0.78400004
-0.051520005 0.28 0.78400004
-0.049899053 0.27928573 0.78200006
-0.048409529 0.27928573 0.78200006
-0.046920002 0.27928573 0.78200006
-0.045430478 0.27928573 0.78200006
-0.043940958 0.27928573 0.78200006
-0.042451434 0.27928573 0.78200006
-0.040961906 0.27928573 0.78200006
-0.039472383 0.27928573 0.78200006
-0.037982859 0.27928573 0.78200006
-0.036493339 0.27928573 0.78200006
-0.035093337 0.28 0.78400004
-0.033514287 0.27928573 0.78200006
-0.032024764 0.27928573 0.78200006
-0.030535242 0.27928573 0.78200006
-0.029120002 0.28 0.78400004
-0.027556192 0.27928573 0.78200006
-0.026066668 0.27928573 0.78200006
-0.024640001 0.28 0.78400004
-0.023146667 0.28 0.78400004
-0.021598097 0.27928573 0.78200006
-0.020108573 0.27928573 0.78200006
-0.018666666 0.28 0.78400004
-0.017129526 0.27928573 0.78200006
-0.01564 0.27928573 0.78200006
-0.014150478 0.27928573 0.78200006
-0.012660953 0.27928573 0.78200006
-0.011200001 0.28 0.78400004
-0.0097066667 0.28 0.78400004
-0.0082133338 0.28 0.78400004
-0.0067371433 0.28071427 0.78600001
-0.0052399999 0.28071427 0.78600001
-0.0037428571 0.28071427 0.78600001
-0.0022457142 0.28071427 0.78600001
-0.00074857142 0.28071427 0.78600001
0.00074857142 0.28071427 0.78600001
0.0022457142 0.28071427 0.78600001
0.0037428571 0.28071427 0.78600001
0.0052399999 0.28071427 0.78600001
0.0067371433 0.28071427 0.78600001
0.0082552386 0.28142861 0.78800005
0.0097561907 0.28142861 0.78800005
0.011228572 0.28071427 0.78600001
0.012758096 0.28142861 0.78800005
0.014277143 0.2817857 0.78900003
0.01578 0.2817857 0.78900003
0.017282858 0.2817857 0.78900003
0.018785715 0.2817857 0.78900003
0.020288572 0.2817857 0.78900003
0.021846667 0.2825 0.79100001
0.023353333 0.2825 0.79100001
0.02486 0.2825 0.79100001
0.026366666 0.2825 0.79100001
0.027873334 0.2825 0.79100001
0.029380001 0.2825 0.79100001
0.030886667 0.2825 0.79100001
0.032393333 0.2825 0.79100001
0.0339 0.2825 0.79100001
0.035406668 0.2825 0.79100001
0.036913332 0.2825 0.79100001
0.038419999 0.2825 0.79100001
0.039926667 0.2825 0.79100001
0.041433334 0.2825 0.79100001
0.042940002 0.2825 0.79100001
0.044446666 0.2825 0.79100001
0.045953333 0.2825 0.79100001
0.047580004 0.2832143 0.79300004
0.049090479 0.2832143 0.79300004
0.050600957 0.2832143 0.79300004
0.052111432 0.2832143 0.79300004
0.053757142 0.28392857 0.79500002
0.055132385 0.2832143 0.79300004
0.05664286 0.2832143 0.79300004
0.058153339 0.2832143 0.79300004
0.059663814 0.2832143 0.79300004
0.061328575 0.28392857 0.79500002
0.062842853 0.28392857 0.79500002
0.064357147 0.28392857 0.79500002
0.065871432 0.28392857 0.79500002
0.067216195 0.2832143 0.79300004
0.068726666 0.2832143 0.79300004
0.070237145 0.2832143 0.79300004
0.071747623 0.2832143 0.79300004
0.073073328 0.2825 0.79100001
0.074579999 0.2825 0.79100001
0.081569523 0.30285716 0.84800005
0.077593334 0.2825 0.79100001
0.079099998 0.2825 0.79100001
0.08081048 0.2832143 0.79300004
0.082320958 0.2832143 0.79300004
0.084042862 0.28392857 0.79500002
0.085772388 0.28464288 0.79700005
0.087400004 0.285 0.79800004
0.089142852 0.28571427 0.80000001
0.090666667 0.28571427 0.80000001
0.095532387 0.29607144 0.82900006
0.097111441 0.29607144 0.82900006
0.09869048 0.29607144 0.82900006
0.10026953 0.29607144 0.82900006
0.10184858 0.29607144 0.82900006
0.10367715 0.29678571 0.83100003
0.10526 0.29678571 0.83100003
0.10684286 0.29678571 0.83100003
0.10842572 0.29678571 0.83100003
0.11000858 0.29678571 0.83100003
0.11212858 0.29821429 0.83500004
0.11399143 0.29892856 0.83700001
0.12373333 0.31999999 0.89600003
0.12572001 0.32071432 0.89800006
0.12743048 0.32071432 0.89800006
0.12914096 0.32071432 0.89800006
0.13085143 0.32071432 0.89800006
0.13256191 0.32071432 0.89800006
0.1967762 0.34321427 0.96100003
0.19798668 0.34214288 0.95800006
0.19918571 0.34107146 0.95500004
0.20100477 0.34107146 0.95500004
0.20282382 0.34107146 0.95500004
0.20464286 0.34107146 0.95500004
0.20646191 0.34107146 0.95500004
0.20828095 0.34107146 0.95500004
0.21010001 0.34107146 0.95500004
0.21191905 0.34107146 0.95500004
0.2137381 0.34107146 0.95500004
0.21510573 0.34035715 0.95300007
0.21692096 0.34035715 0.95300007
0.2187362 0.34035715 0.95300007
0.22055143 0.34035715 0.95300007
0.22236668 0.34035715 0.95300007
0.2234762 0.33928573 0.95000005
0.22528572 0.33928573 0.95000005
0.22781239 0.34035715 0.95300007
0.22962764 0.34035715 0.95300007
0.23192857 0.34107146 0.95500004
0.23374763 0.34107146 0.95500004
0.23556668 0.34107146 0.95500004
0.23813143 0.34214288 0.95800006
0.27697143 0.26428571 0.74000001
0.27838096 0.26428571 0.74000001
0.28054667 0.26500002 0.74200004
0.28082001 0.26392856 0.73900002
0.28146383 0.26321432 0.73700005
0.28248385 0.26285717 0.73600006
0.28388572 0.26285717 0.73600006
