# .PCD v0.7 - Point Cloud Data file format
VERSION 0.7
FIELDS x y z rgb
SIZE 4 4 4 4
TYPE F F F F
COUNT 1 1 1 1
WIDTH 1011
HEIGHT 1
VIEWPOINT 0 0 0 1 0 0 0
POINTS 1011
DATA ascii
-0.073704764 0.17242858 0.71000004 6.4472117e-39
-0.072454289 0.17267144 0.71100003 6.6330421e-39
-0.071400002 0.1734 0.71400005 6.9107038e-39
-0.070236191 0.17388572 0.71600002 7.094379e-39
-0.068872385 0.17388572 0.71600002 7.2780471e-39
-0.058836192 0.1899143 0.78200006 6.8159956e-39
-0.057346672 0.1899143 0.78200006 6.9996708e-39
-0.056285717 0.19137144 0.78800005 7.092228e-39
-0.054784764 0.19137144 0.78800005 7.092944e-39
-0.053486664 0.1921 0.79100001 7.1847795e-39
-0.05198 0.1921 0.79100001 7.1851383e-39
-0.048160955 0.20132859 0.82900006 7.1858557e-39
-0.046469525 0.20084286 0.82700002 7.1862159e-39
-0.045002859 0.20132859 0.82900006 7.2784101e-39
-0.043214288 0.20035715 0.82500005 7.1862159e-39
-0.04164286 0.20035715 0.82500005 7.0940202e-39
0.52666664 0.24285714 1 9.3124859e-39
0.52857143 0.24285714 1 9.4043186e-39
0.52888477 0.24212858 0.99700004 9.4043172e-39
0.52918667 0.2414 0.99400002 9.4043172e-39
0.52947718 0.24067144 0.99100006 9.4043186e-39
0.52975619 0.23994286 0.98800004 9.4961527e-39
0.53002381 0.2392143 0.98500007 9.4046745e-39
0.53082001 0.23872858 0.98300004 9.3131992e-39
0.53106666 0.23800001 0.98000002 9.4046787e-39
0.53293335 0.23800001 0.98000002 9.4968743e-39
-0.30463335 0.16276667 0.66500002 7.3793358e-40
-0.30154192 0.16178761 0.66100001 5.5426399e-40
-0.29892004 0.16105334 0.65800005 3.7059019e-40
-0.29540476 0.15982954 0.65300006 3.7058879e-40
-0.29371047 0.15958476 0.65200001 3.7022726e-40
-0.29201999 0.15934001 0.65100002 3.7022586e-40
-0.29033333 0.15909524 0.65000004 3.7023006e-40
-0.28909525 0.15909524 0.65000004 3.70593e-40
-0.28697142 0.15860571 0.648 3.7058879e-40
-0.2852962 0.15836096 0.64700001 3.7058319e-40
-0.28362477 0.15811619 0.64600003 4.6242149e-40
-0.28195715 0.15787144 0.64500004 3.7058879e-40
-0.28029335 0.15762667 0.64400005 3.6987553e-40
-0.2782 0.15713714 0.64200002 3.6987974e-40
-0.27697715 0.15713714 0.64200002 3.6987693e-40
-0.2757543 0.15713714 0.64200002 3.7023286e-40
-0.27410382 0.15689239 0.64100003 3.6987273e-40
-0.27288285 0.15689239 0.64100003 4.6134669e-40
-0.27208573 0.15713714 0.64200002 6.4537642e-40
-0.27044097 0.15689239 0.64100003 4.6206416e-40
-0.26880002 0.15664762 0.64000005 3.6986993e-40
-0.26758096 0.15664762 0.64000005 5.5318219e-40
-0.26594573 0.15640287 0.63900006 7.3757064e-40
-0.26472861 0.15640287 0.63900006 5.5389965e-40
-0.26309904 0.15615809 0.63800001 3.7022866e-40
-0.2618838 0.15615809 0.63800001 3.7022866e-40
-0.26066858 0.15615809 0.63800001 3.6986853e-40
-0.25945333 0.15615809 0.63800001 3.7022726e-40
-0.25864285 0.15640287 0.63900006 3.6987133e-40
-0.25742573 0.15640287 0.63900006 5.5318499e-40
-0.25620857 0.15640287 0.63900006 7.3649445e-40
-0.25459236 0.15615809 0.63800001 5.5282065e-40
-0.25337714 0.15615809 0.63800001 4.6098375e-40
-0.25216192 0.15615809 0.63800001 4.6098375e-40
-0.25094667 0.15615809 0.63800001 4.6062502e-40
-0.24973144 0.15615809 0.63800001 4.6062642e-40
-0.2485162 0.15615809 0.63800001 4.6098656e-40
-0.24730097 0.15615809 0.63800001 3.6987133e-40
-0.24608572 0.15615809 0.63800001 2.7803443e-40
-0.24487048 0.15615809 0.63800001 2.7803163e-40
-0.24365523 0.15615809 0.63800001 2.7731416e-40
-0.24282002 0.15640287 0.63900006 2.7695543e-40
-0.24160288 0.15640287 0.63900006 2.7695263e-40
-0.24038574 0.15640287 0.63900006 2.7730856e-40
-0.2391686 0.15640287 0.63900006 3.6878812e-40
-0.23795146 0.15640287 0.63900006 3.6878953e-40
-0.23673432 0.15640287 0.63900006 3.6878953e-40
-0.23551717 0.15640287 0.63900006 3.6878953e-40
-0.23430003 0.15640287 0.63900006 3.6878953e-40
-0.23344763 0.15664762 0.64000005 3.6843079e-40
-0.23222858 0.15664762 0.64000005 3.684336e-40
-0.23100953 0.15664762 0.64000005 4.6063063e-40
-0.23014954 0.15689239 0.64100003 5.5318219e-40
-0.22892858 0.15689239 0.64100003 5.5354092e-40
-0.22770764 0.15689239 0.64100003 6.4645822e-40
-0.22648667 0.15689239 0.64100003 7.3901678e-40
-0.22526571 0.15689239 0.64100003 8.3085228e-40
-0.22439429 0.15713714 0.64200002 8.3121241e-40
-0.22317143 0.15713714 0.64200002 8.3085368e-40
-0.22194858 0.15713714 0.64200002 8.3085368e-40
-0.22072572 0.15713714 0.64200002 8.3085648e-40
-0.21950287 0.15713714 0.64200002 8.3085929e-40
-0.20026001 0.14416477 0.58900005 8.3121662e-40
-0.1991381 0.14416477 0.58900005 8.3157395e-40
-0.19768 0.14391999 0.588 9.2341085e-40
-0.19656 0.14391999 0.588 7.3974266e-40
-0.19510762 0.14367524 0.58700001 5.564318e-40
-0.19365905 0.14343049 0.58600003 8.3265715e-40
-0.1922143 0.14318573 0.58500004 1.1081706e-39
-0.19044666 0.14269619 0.583 1.0163408e-39
-0.18868668 0.14220667 0.58100003 9.2486119e-40
-0.18725716 0.14196192 0.58000004 1.3854708e-39
-0.18583144 0.14171715 0.57900006 1.8442881e-39
-0.18440953 0.14147238 0.57800001 1.3851107e-39
-0.18330857 0.14147238 0.57800001 9.2521712e-40
-0.1818924 0.14122762 0.57700002 1.016338e-39
-0.18048 0.14098287 0.57600003 1.1085294e-39
-0.17907144 0.1407381 0.57500005 8.3373896e-40
-0.17797621 0.1407381 0.57500005 6.4970643e-40
-0.17657332 0.14049333 0.574 6.4970363e-40
-0.17547999 0.14049333 0.574 6.5042529e-40
-0.17408286 0.14024857 0.57300001 8.3517669e-40
-0.17268953 0.14000382 0.57200003 1.1110489e-39
-0.1716 0.14000382 0.57200003 1.0199379e-39
-0.17021239 0.13975905 0.57100004 1.0202952e-39
-0.16882859 0.1395143 0.57000005 1.0210099e-39
-0.16744857 0.13926953 0.56900001 1.1128468e-39
-0.16636476 0.13926953 0.56900001 1.2965206e-39
-0.16499048 0.13902476 0.56800002 1.4798328e-39
-0.16362001 0.13878001 0.56700003 1.4801916e-39
-0.16225335 0.13853525 0.56600004 1.4798314e-39
-0.16146 0.13878001 0.56700003 1.47983e-39
-0.16038001 0.13878001 0.56700003 1.5716655e-39
-0.15930001 0.13878001 0.56700003 1.7556967e-39
-0.15794097 0.13853525 0.56600004 1.9393648e-39
-0.15686287 0.13853525 0.56600004 1.4805447e-39
-0.15606001 0.13878001 0.56700003 1.1124824e-39
-0.15498 0.13878001 0.56700003 9.2845132e-40
-0.15362859 0.13853525 0.56600004 8.3517529e-40
-0.15255049 0.13853525 0.56600004 7.4225939e-40
-0.15147239 0.13853525 0.56600004 7.4009999e-40
-0.15039431 0.13853525 0.56600004 5.5534719e-40
-0.14931621 0.13853525 0.56600004 4.6242989e-40
-0.14823811 0.13853525 0.56600004 6.4502049e-40
-0.14716001 0.13853525 0.56600004 8.2797121e-40
-0.14608192 0.13853525 0.56600004 7.3577418e-40
-0.14500383 0.13853525 0.56600004 7.3612731e-40
-0.14392573 0.13853525 0.56600004 5.5245071e-40
-0.14284763 0.13853525 0.56600004 3.6878252e-40
-0.14176954 0.13853525 0.56600004 4.6097815e-40
-0.14069144 0.13853525 0.56600004 5.5245351e-40
-0.13961335 0.13853525 0.56600004 7.361245e-40
-0.13878001 0.13878001 0.56700003 1.0119897e-39
-0.13770001 0.13878001 0.56700003 1.0127072e-39
-0.13662 0.13878001 0.56700003 1.1045427e-39
-0.13553999 0.13878001 0.56700003 1.1970956e-39
-0.13446002 0.13878001 0.56700003 1.2885738e-39
-0.13502666 0.14049333 0.574 1.2885766e-39
-0.13440001 0.14098287 0.57600003 1.2889339e-39
-0.13353428 0.14122762 0.57700002 1.2892927e-39
-0.13243525 0.14122762 0.57700002 1.2889339e-39
-0.13133618 0.14122762 0.57700002 1.2889339e-39
-0.13023715 0.14122762 0.57700002 1.3818456e-39
-0.1293619 0.14147238 0.57800001 1.5655166e-39
-0.12803906 0.14122762 0.57700002 1.749189e-39
-0.12716 0.14147238 0.57800001 1.7495506e-39
-0.12605904 0.14147238 0.57800001 1.7495506e-39
-0.1251743 0.14171715 0.57900006 1.8417462e-39
-0.12407143 0.14171715 0.57900006 1.9332202e-39
-0.12296859 0.14171715 0.57900006 2.2083665e-39
-0.12186573 0.14171715 0.57900006 2.4838744e-39
-0.12076286 0.14171715 0.57900006 2.3005635e-39
-0.11966001 0.14171715 0.57900006 2.2101658e-39
-0.11876191 0.14196192 0.58000004 2.210886e-39
-0.11765715 0.14196192 0.58000004 2.2101686e-39
-0.11655239 0.14196192 0.58000004 2.4853163e-39
-0.11564668 0.14220667 0.58100003 2.7604627e-39
-0.11454 0.14220667 0.58100003 2.760104e-39
-0.11362857 0.14245144 0.58200002 2.8526583e-39
-0.11232667 0.14220667 0.58100003 2.7608242e-39
-0.11141143 0.14245144 0.58200002 2.7608214e-39
-0.11030286 0.14245144 0.58200002 2.7611773e-39
-0.1093819 0.14269619 0.583 2.7608214e-39
-0.10827143 0.14269619 0.583 2.8526597e-39
-0.10716095 0.14269619 0.583 2.9444938e-39
-0.10623238 0.14294097 0.58400005 2.9448511e-39
-0.10512 0.14294097 0.58400005 2.9452099e-39
-0.10418572 0.14318573 0.58500004 3.0370454e-39
-0.10289524 0.14294097 0.58400005 3.129241e-39
-0.10195715 0.14318573 0.58500004 3.1296011e-39
-0.10101524 0.14343049 0.58600003 3.2214366e-39
-0.099899054 0.14343049 0.58600003 3.221438e-39
-0.098951429 0.14367524 0.58700001 3.3136323e-39
-0.097833328 0.14367524 0.58700001 3.3139924e-39
-0.096879996 0.14391999 0.588 3.4058265e-39
-0.095759995 0.14391999 0.588 3.4061838e-39
-0.094961911 0.14440952 0.59000003 3.4980221e-39
-0.093997151 0.14465429 0.59100002 3.5902192e-39
-0.092871435 0.14465429 0.59100002 3.682412e-39
-0.091900952 0.14489904 0.59200001 3.6827693e-39
-0.09092667 0.14514382 0.59300005 3.7746062e-39
-0.090100005 0.14563334 0.59500003 3.9593548e-39
-0.089116193 0.14587809 0.59600002 4.2348613e-39
-0.088128574 0.14612286 0.597 4.2355788e-39
-0.087137155 0.14636764 0.59800005 4.23522e-39
-0.085998096 0.14636764 0.59800005 4.4203259e-39
-0.085000955 0.14661239 0.59900004 4.6040039e-39
-0.084000006 0.14685716 0.60000002 4.7876833e-39
-0.082995243 0.14710191 0.60100001 4.9731522e-39
-0.081986673 0.14734669 0.60200006 5.2493804e-39
-0.080840006 0.14734669 0.60200006 5.6188859e-39
-0.079825722 0.14759144 0.60300004 5.6196146e-39
-0.078677148 0.14759144 0.60300004 5.708925e-39
-0.078171432 0.14881524 0.60800004 5.4312535e-39
-0.077520005 0.1497943 0.61200005 5.1553813e-39
-0.076354288 0.1497943 0.61200005 4.8795076e-39
-0.075065717 0.14954951 0.611 4.6965569e-39
-0.073901907 0.14954951 0.611 4.7891113e-39
-0.074404761 0.15297619 0.625 4.8805922e-39
-0.073214285 0.15297619 0.625 4.7887623e-39
-0.072254293 0.15346572 0.62700003 4.7898399e-39
-0.071060002 0.15346572 0.62700003 4.9738725e-39
-0.078780003 0.17304666 0.70700002 5.1571861e-39
-0.077433333 0.17304666 0.70700002 5.0649933e-39
-0.076086663 0.17304666 0.70700002 5.0660723e-39
-0.074740008 0.17304666 0.70700002 5.4341346e-39
-0.073497139 0.17329141 0.708 5.8951141e-39
-0.07235238 0.17378096 0.71000004 6.0805858e-39
-0.071300007 0.17451525 0.71300006 6.3578999e-39
-0.07004001 0.17476001 0.71400005 6.8192438e-39
-0.068680003 0.17476001 0.71400005 7.2773339e-39
-0.067602858 0.17549428 0.71700001 7.0011001e-39
-0.066421911 0.17598382 0.71900004 6.724516e-39
-0.065052383 0.17598382 0.71900004 6.6319617e-39
-0.057346672 0.19140382 0.78200006 6.7234384e-39
-0.056285717 0.19287239 0.78800005 6.6319631e-39
-0.054784764 0.19287239 0.78800005 6.6326819e-39
-0.053351428 0.19311716 0.78900003 6.7252363e-39
-0.051848572 0.19311716 0.78900003 6.8170718e-39
-0.048160955 0.20290762 0.82900006 6.8170718e-39
-0.046581909 0.20290762 0.82900006 6.9092674e-39
-0.045002859 0.20290762 0.82900006 7.0014617e-39
-0.043423809 0.20290762 0.82900006 6.9103436e-39
-0.041844767 0.20290762 0.82900006 6.8177921e-39
0.52857143 0.2447619 1 9.3121244e-39
0.52888477 0.24402761 0.99700004 9.3121244e-39
0.52918667 0.24329334 0.99400002 9.312123e-39
0.52947718 0.24255906 0.99100006 9.3124817e-39
0.52975619 0.24182478 0.98800004 9.3124817e-39
0.53002381 0.24109049 0.98500007 9.3128404e-39
0.53082001 0.24060096 0.98300004 9.3128418e-39
0.53106666 0.23986666 0.98000002 9.4965142e-39
0.53293335 0.23986666 0.98000002 9.6801866e-39
-0.30371717 0.16354001 0.66300005 5.5426399e-40
-0.30199811 0.16329335 0.66200006 4.624327e-40
-0.30028287 0.16304667 0.66100001 3.7023286e-40
-0.2967619 0.16181333 0.65600002 3.7022866e-40
-0.29371047 0.16082667 0.65200001 3.7022866e-40
-0.29201999 0.16058001 0.65100002 3.7023006e-40
-0.29078001 0.16058001 0.65100002 3.70593e-40
-0.28909525 0.16033334 0.65000004 3.705972e-40
-0.28697142 0.15984 0.648 3.7058739e-40
-0.2852962 0.15959333 0.64700001 3.7057898e-40
-0.28362477 0.15934667 0.64600003 3.6986572e-40
-0.28239429 0.15934667 0.64600003 3.7022866e-40
-0.28072858 0.15910001 0.64500004 3.7023286e-40
-0.27906668 0.15885335 0.64400005 3.6987833e-40
-0.27697715 0.15836 0.64200002 3.6987833e-40
-0.2757543 0.15836 0.64200002 3.6987833e-40
-0.27410382 0.15811335 0.64100003 3.7023286e-40
-0.27288285 0.15811335 0.64100003 3.7022866e-40
-0.27166194 0.15811335 0.64100003 4.6242289e-40
-0.27044097 0.15811335 0.64100003 3.7023006e-40
-0.26880002 0.15786667 0.64000005 3.7022866e-40
-0.26758096 0.15786667 0.64000005 4.6206416e-40
-0.26594573 0.15762001 0.63900006 5.5389965e-40
-0.26472861 0.15762001 0.63900006 4.6206416e-40
-0.26351145 0.15762001 0.63900006 3.7022866e-40
-0.2618838 0.15737334 0.63800001 2.7803443e-40
-0.26107717 0.15762001 0.63900006 2.7803303e-40
-0.25986001 0.15762001 0.63900006 3.6950979e-40
-0.25864285 0.15762001 0.63900006 3.6879233e-40
-0.25742573 0.15762001 0.63900006 4.6098656e-40
-0.25620857 0.15762001 0.63900006 4.6098516e-40
-0.25459236 0.15737334 0.63800001 3.6914966e-40
-0.25337714 0.15737334 0.63800001 3.6914966e-40
-0.25216192 0.15737334 0.63800001 3.6914966e-40
-0.25094667 0.15737334 0.63800001 4.6170262e-40
-0.24973144 0.15737334 0.63800001 3.6914966e-40
-0.2485162 0.15737334 0.63800001 3.6987133e-40
-0.24730097 0.15737334 0.63800001 2.7804144e-40
-0.24608572 0.15737334 0.63800001 2.7803723e-40
-0.24487048 0.15737334 0.63800001 2.7803303e-40
-0.24365523 0.15737334 0.63800001 2.7803303e-40
-0.24244002 0.15737334 0.63800001 2.7695683e-40
-0.24122477 0.15737334 0.63800001 2.7730996e-40
-0.24000953 0.15737334 0.63800001 2.7730576e-40
-0.2387943 0.15737334 0.63800001 2.7730856e-40
-0.23795146 0.15762001 0.63900006 2.7695403e-40
-0.23673432 0.15762001 0.63900006 3.6878953e-40
-0.23551717 0.15762001 0.63900006 2.7695403e-40
-0.23430003 0.15762001 0.63900006 2.7695403e-40
-0.23344763 0.15786667 0.64000005 2.7695403e-40
-0.23222858 0.15786667 0.64000005 3.6879373e-40
-0.23100953 0.15786667 0.64000005 3.6879934e-40
-0.23014954 0.15811335 0.64100003 3.695154e-40
-0.22892858 0.15811335 0.64100003 5.5354372e-40
-0.22770764 0.15811335 0.64100003 6.4646102e-40
-0.22648667 0.15811335 0.64100003 7.3866085e-40
-0.22526571 0.15811335 0.64100003 8.3085648e-40
-0.22439429 0.15836 0.64200002 6.4754703e-40
-0.22317143 0.15836 0.64200002 5.5570733e-40
-0.22194858 0.15836 0.64200002 6.4753862e-40
-0.22038192 0.15811335 0.64100003 8.3157255e-40
-0.21916097 0.15811335 0.64100003 8.3121942e-40
-0.20026001 0.14528668 0.58900005 8.3157395e-40
-0.1994762 0.14553334 0.59000003 8.3156975e-40
-0.19801621 0.14528668 0.58900005 8.3157395e-40
-0.19656 0.14504001 0.588 8.3121942e-40
-0.19510762 0.14479333 0.58700001 8.3301589e-40
-0.19398953 0.14479333 0.58700001 1.0163309e-39
-0.19254287 0.14454667 0.58600003 1.2918472e-39
-0.19077334 0.14405334 0.58400005 1.1081875e-39
-0.18901142 0.14356001 0.58200002 9.2450666e-40
-0.18725716 0.14306667 0.58000004 1.1088867e-39
-0.1861524 0.14306667 0.58000004 1.3843918e-39
-0.18440953 0.14257333 0.57800001 1.0166911e-39
-0.18330857 0.14257333 0.57800001 6.493491e-40
-0.1818924 0.14232667 0.57700002 8.3266136e-40
-0.18048 0.14208001 0.57600003 1.0159764e-39
-0.17907144 0.14183335 0.57500005 8.3230823e-40
-0.17797621 0.14183335 0.57500005 7.4083006e-40
-0.17657332 0.14158666 0.574 6.5007077e-40
-0.17547999 0.14158666 0.574 6.5258189e-40
-0.17408286 0.14134 0.57300001 8.3625429e-40
-0.17268953 0.14109334 0.57200003 9.2810239e-40
-0.17130001 0.14084667 0.57100004 1.0195918e-39
-0.17021239 0.14084667 0.57100004 1.1124965e-39
-0.16882859 0.14060001 0.57000005 1.1124909e-39
-0.16744857 0.14035334 0.56900001 1.2046851e-39
-0.16636476 0.14035334 0.56900001 1.2043263e-39
-0.16470002 0.13986 0.56700003 1.2958031e-39
-0.16333145 0.13961335 0.56600004 1.2954444e-39
-0.16225335 0.13961335 0.56600004 1.3872799e-39
-0.16117525 0.13961335 0.56600004 1.2954444e-39
-0.16009717 0.13961335 0.56600004 1.2036075e-39
-0.15901907 0.13961335 0.56600004 1.3865596e-39
-0.15794097 0.13961335 0.56600004 1.5687901e-39
-0.15686287 0.13961335 0.56600004 1.2021613e-39
-0.15578479 0.13961335 0.56600004 8.3553402e-40
-0.15470669 0.13961335 0.56600004 7.4154473e-40
-0.15362859 0.13961335 0.56600004 6.4755263e-40
-0.15255049 0.13961335 0.56600004 5.5499547e-40
-0.15147239 0.13961335 0.56600004 5.5462693e-40
-0.15039431 0.13961335 0.56600004 4.6134809e-40
-0.14931621 0.13961335 0.56600004 3.684336e-40
-0.14823811 0.13961335 0.56600004 5.5210179e-40
-0.14716001 0.13961335 0.56600004 7.3577278e-40
-0.14608192 0.13961335 0.56600004 7.3577418e-40
-0.14500383 0.13961335 0.56600004 7.3612871e-40
-0.14392573 0.13961335 0.56600004 5.5245351e-40
-0.14259525 0.13936667 0.565 3.6878252e-40
-0.14176954 0.13961335 0.56600004 5.5245491e-40
-0.14069144 0.13961335 0.56600004 7.3648324e-40
-0.13961335 0.13961335 0.56600004 8.279586e-40
-0.13878001 0.13986 0.56700003 1.0127058e-39
-0.13770001 0.13986 0.56700003 1.0127072e-39
-0.13662 0.13986 0.56700003 1.1045427e-39
-0.1360181 0.14035334 0.56900001 1.1045427e-39
-0.1365943 0.14208001 0.57600003 1.1963824e-39
-0.1357324 0.14232667 0.57700002 1.3804163e-39
-0.13463333 0.14232667 0.57700002 1.5644432e-39
-0.13376571 0.14257333 0.57800001 1.3811296e-39
-0.13266477 0.14257333 0.57800001 1.2900101e-39
-0.13156381 0.14257333 0.57800001 1.3818456e-39
-0.13046287 0.14257333 0.57800001 1.4736825e-39
-0.1293619 0.14257333 0.57800001 1.5655194e-39
-0.12826094 0.14257333 0.57800001 1.6566375e-39
-0.12716 0.14257333 0.57800001 1.7488331e-39
-0.12605904 0.14257333 0.57800001 1.7495506e-39
-0.1251743 0.14282002 0.57900006 1.8417462e-39
-0.12407143 0.14282002 0.57900006 1.9339362e-39
-0.12296859 0.14282002 0.57900006 2.1168869e-39
-0.12186573 0.14282002 0.57900006 2.3002034e-39
-0.12076286 0.14282002 0.57900006 2.2094483e-39
-0.11966001 0.14282002 0.57900006 2.1183345e-39
-0.11855715 0.14282002 0.57900006 2.1183401e-39
-0.11765715 0.14306667 0.58000004 2.1183359e-39
-0.11655239 0.14306667 0.58000004 2.3016453e-39
-0.11544763 0.14306667 0.58000004 2.3931207e-39
-0.11454 0.14331333 0.58100003 2.4849562e-39
-0.11343334 0.14331333 0.58100003 2.5771518e-39
-0.11232667 0.14331333 0.58100003 2.66863e-39
-0.11141143 0.14356001 0.58200002 2.7604641e-39
-0.11030286 0.14356001 0.58200002 2.7604641e-39
-0.1093819 0.14380667 0.583 2.7608228e-39
-0.10827143 0.14380667 0.583 2.7608242e-39
-0.10716095 0.14380667 0.583 2.852301e-39
-0.10623238 0.14405334 0.58400005 2.8530184e-39
-0.10512 0.14405334 0.58400005 2.8533744e-39
-0.10400762 0.14405334 0.58400005 2.9452071e-39
-0.10289524 0.14405334 0.58400005 2.9452113e-39
-0.10178287 0.14405334 0.58400005 2.9452155e-39
-0.10101524 0.14454667 0.58600003 2.9452155e-39
-0.099899054 0.14454667 0.58600003 3.0374097e-39
-0.09878286 0.14454667 0.58600003 3.2214408e-39
-0.097833328 0.14479333 0.58700001 3.221801e-39
-0.096715242 0.14479333 0.58700001 3.313991e-39
-0.095759995 0.14504001 0.588 3.3139882e-39
-0.094800957 0.14528668 0.58900005 3.4058279e-39
-0.093838103 0.14553334 0.59000003 3.4054748e-39
-0.092714287 0.14553334 0.59000003 3.4973061e-39
-0.091745712 0.14578 0.59100002 3.5902149e-39
-0.090773337 0.14602667 0.59200001 3.5909338e-39
-0.089797154 0.14627334 0.59300005 3.7749649e-39
-0.088817142 0.14652 0.59400004 4.0511903e-39
-0.087833337 0.14676668 0.59500003 4.0515518e-39
-0.086991429 0.14726 0.597 4.1433845e-39
-0.085854284 0.14726 0.597 4.2359347e-39
-0.084717147 0.14726 0.597 4.4192497e-39
-0.08386001 0.14775334 0.59900004 4.5121656e-39
-0.082857139 0.148 0.60000002 4.6965611e-39
-0.081850477 0.14824666 0.60100001 4.9731522e-39
-0.080840006 0.14849335 0.60200006 5.2515496e-39
-0.07969334 0.14849335 0.60200006 5.4356017e-39
-0.078677148 0.14874001 0.60300004 5.6199734e-39
-0.077914283 0.14948 0.60600001 5.4344919e-39
-0.077140003 0.15022001 0.60900003 5.3408529e-39
-0.07622952 0.15071332 0.611 4.9727837e-39
-0.075065717 0.15071332 0.611 4.6965611e-39
-0.073901907 0.15071332 0.611 4.6965639e-39
-0.072738096 0.15071332 0.611 4.7880421e-39
-0.073448576 0.15466 0.62700003 4.7887623e-39
-0.072254293 0.15466 0.62700003 4.8816754e-39
-0.070946671 0.15441334 0.62600005 4.8816768e-39
-0.069754288 0.15441334 0.62600005 4.8816754e-39
-0.077214286 0.17390001 0.70500004 4.9731522e-39
-0.075871438 0.17390001 0.70500004 4.9735123e-39
-0.074740008 0.17439334 0.70700002 5.1571847e-39
-0.073393337 0.17439334 0.70700002 5.4330584e-39
-0.072148569 0.17464 0.708 5.7103669e-39
-0.071000002 0.17513335 0.71000004 6.0798851e-39
-0.069941908 0.17587335 0.71300006 6.4486858e-39
-0.068680003 0.17612001 0.71400005 6.90928e-39
-0.067602858 0.17686 0.71700001 6.7252335e-39
-0.066421911 0.17735334 0.71900004 6.632319e-39
-0.065052383 0.17735334 0.71900004 6.5397646e-39
-0.063682862 0.17735334 0.71900004 6.3546559e-39
-0.056285717 0.19437334 0.78800005 6.263175e-39
-0.054784764 0.19437334 0.78800005 6.2638966e-39
-0.053283811 0.19437334 0.78800005 6.2639008e-39
-0.051782858 0.19437334 0.78800005 6.2642596e-39
-0.050281905 0.19437334 0.78800005 6.264261e-39
-0.048780952 0.19437334 0.78800005 6.3564524e-39
-0.049620003 0.20399334 0.82700002 6.3564496e-39
-0.048044764 0.20399334 0.82700002 6.3564524e-39
-0.046469525 0.20399334 0.82700002 6.4486494e-39
-0.044894286 0.20399334 0.82700002 6.541201e-39
-0.043319046 0.20399334 0.82700002 6.541201e-39
-0.041844767 0.20448668 0.82900006 6.5415625e-39
-0.040265717 0.20448668 0.82900006 6.6330435e-39
-0.038686667 0.20448668 0.82900006 6.6330463e-39
0.53047621 0.24666667 1 9.3121258e-39
0.52918667 0.24518667 0.99400002 9.4039599e-39
0.52947718 0.24444667 0.99100006 9.4039584e-39
0.52975619 0.24370667 0.98800004 9.3121244e-39
0.53002381 0.24296668 0.98500007 9.3121258e-39
0.53082001 0.24247335 0.98300004 9.2202903e-39
0.53106666 0.24173334 0.98000002 9.3121272e-39
0.53293335 0.24173334 0.98000002 9.4043214e-39
-0.30371717 0.16480286 0.66300005 3.7058879e-40
-0.30199811 0.1645543 0.66200006 3.70593e-40
-0.30073714 0.1645543 0.66200006 3.7023146e-40
-0.2967619 0.16306286 0.65600002 3.7022866e-40
-0.29371047 0.16206856 0.65200001 3.7022866e-40
-0.29246858 0.16206856 0.65200001 3.7022866e-40
-0.29078001 0.16182001 0.65100002 3.7023146e-40
-0.28909525 0.16157143 0.65000004 3.7023286e-40
-0.28697142 0.1610743 0.648 3.7022586e-40
-0.28573713 0.1610743 0.648 3.7057898e-40
-0.28406382 0.16082571 0.64700001 3.6986572e-40
-0.28239429 0.16057715 0.64600003 3.7022866e-40
-0.28072858 0.16032858 0.64500004 3.7023286e-40
-0.27950001 0.16032858 0.64500004 3.7023707e-40
-0.27784002 0.16008002 0.64400005 3.6987833e-40
-0.2757543 0.15958287 0.64200002 3.6987833e-40
-0.27410382 0.15933429 0.64100003 3.6987553e-40
-0.27288285 0.15933429 0.64100003 3.7023286e-40
-0.27166194 0.15933429 0.64100003 3.7023006e-40
-0.27044097 0.15933429 0.64100003 3.7022866e-40
-0.26880002 0.15908572 0.64000005 3.7022866e-40
-0.26758096 0.15908572 0.64000005 3.7022866e-40
-0.26594573 0.15883717 0.63900006 3.7022866e-40
-0.26472861 0.15883717 0.63900006 3.7022866e-40
-0.26351145 0.15883717 0.63900006 3.6987273e-40
-0.26229432 0.15883717 0.63900006 2.7804004e-40
-0.26107717 0.15883717 0.63900006 2.776771e-40
-0.25986001 0.15883717 0.63900006 3.6915106e-40
-0.25864285 0.15883717 0.63900006 4.6134529e-40
-0.25742573 0.15883717 0.63900006 3.6986853e-40
-0.25580761 0.15858857 0.63800001 2.776729e-40
-0.25459236 0.15858857 0.63800001 2.7695543e-40
-0.25337714 0.15858857 0.63800001 2.7695543e-40
-0.25216192 0.15858857 0.63800001 3.6914966e-40
-0.25094667 0.15858857 0.63800001 4.6134389e-40
-0.24973144 0.15858857 0.63800001 3.6879093e-40
-0.2485162 0.15858857 0.63800001 2.7803443e-40
-0.24730097 0.15858857 0.63800001 2.776785e-40
-0.24608572 0.15858857 0.63800001 2.7803443e-40
-0.24487048 0.15858857 0.63800001 2.7803163e-40
-0.24365523 0.15858857 0.63800001 2.776729e-40
-0.24244002 0.15858857 0.63800001 2.7731416e-40
-0.24122477 0.15858857 0.63800001 2.7695123e-40
-0.24000953 0.15858857 0.63800001 1.8511153e-40
-0.2387943 0.15858857 0.63800001 1.8547166e-40
-0.23795146 0.15883717 0.63900006 2.7766729e-40
-0.23673432 0.15883717 0.63900006 3.6878672e-40
-0.23551717 0.15883717 0.63900006 2.7731276e-40
-0.23430003 0.15883717 0.63900006 2.7695543e-40
-0.23344763 0.15908572 0.64000005 2.7695683e-40
-0.23222858 0.15908572 0.64000005 3.6879373e-40
-0.23100953 0.15908572 0.64000005 2.7695823e-40
-0.22979049 0.15908572 0.64000005 2.7731837e-40
-0.22892858 0.15933429 0.64100003 4.6170823e-40
-0.22770764 0.15933429 0.64100003 7.3757625e-40
-0.22648667 0.15933429 0.64100003 7.3793919e-40
-0.22526571 0.15933429 0.64100003 8.3085228e-40
-0.22439429 0.15958287 0.64200002 5.5570733e-40
-0.22317143 0.15958287 0.64200002 3.7203353e-40
-0.22160287 0.15933429 0.64100003 5.5570312e-40
-0.22038192 0.15933429 0.64100003 8.3085228e-40
-0.21916097 0.15933429 0.64100003 8.3085508e-40
-0.19981429 0.14690572 0.59100002 8.3049635e-40
-0.19801621 0.14640859 0.58900005 8.3157815e-40
-0.1968943 0.14640859 0.58900005 9.2306052e-40
-0.19510762 0.14591143 0.58700001 1.1081664e-39
-0.19398953 0.14591143 0.58700001 1.2918374e-39
-0.19254287 0.14566286 0.58600003 1.4755154e-39
-0.19077334 0.14516573 0.58400005 1.2007334e-39
-0.18901142 0.14466858 0.58200002 9.2521992e-40
-0.18758002 0.14442 0.58100003 9.2557165e-40
-0.1861524 0.14417143 0.58000004 9.2413532e-40
-0.18472858 0.14392288 0.57900006 6.4790996e-40
-0.18330857 0.14367428 0.57800001 4.6424177e-40
-0.1818924 0.14342572 0.57700002 6.4791417e-40
-0.18048 0.14317715 0.57600003 9.2378079e-40
-0.17907144 0.14292859 0.57500005 8.3266556e-40
-0.17797621 0.14292859 0.57500005 8.3194669e-40
-0.17657332 0.14267999 0.574 7.4262233e-40
-0.17547999 0.14267999 0.574 7.4334259e-40
-0.17408286 0.14243144 0.57300001 7.4406286e-40
-0.17268953 0.14218286 0.57200003 8.3590676e-40
-0.17130001 0.14193429 0.57100004 1.0195862e-39
-0.17021239 0.14193429 0.57100004 1.2950898e-39
-0.16882859 0.14168572 0.57000005 1.295087e-39
-0.16744857 0.14143714 0.56900001 1.2950842e-39
-0.16636476 0.14143714 0.56900001 1.2032473e-39
-0.16470002 0.14094001 0.56700003 1.1114119e-39
-0.16333145 0.14069144 0.56600004 1.2032473e-39
-0.16225335 0.14069144 0.56600004 1.2950828e-39
-0.16117525 0.14069144 0.56600004 1.1114104e-39
-0.16009717 0.14069144 0.56600004 9.2737932e-40
-0.15901907 0.14069144 0.56600004 1.1106916e-39
-0.15794097 0.14069144 0.56600004 1.2925619e-39
-0.15686287 0.14069144 0.56600004 9.2485418e-40
-0.15578479 0.14069144 0.56600004 6.4826729e-40
-0.15470669 0.14069144 0.56600004 5.5571153e-40
-0.15362859 0.14069144 0.56600004 5.5463113e-40
-0.15255049 0.14069144 0.56600004 4.6171663e-40
-0.15147239 0.14069144 0.56600004 3.6915667e-40
-0.15039431 0.14069144 0.56600004 3.6843219e-40
-0.14931621 0.14069144 0.56600004 3.6843079e-40
-0.14823811 0.14069144 0.56600004 4.6026629e-40
-0.14716001 0.14069144 0.56600004 6.4393588e-40
-0.14608192 0.14069144 0.56600004 7.3576998e-40
-0.14500383 0.14069144 0.56600004 8.2760267e-40
-0.14392573 0.14069144 0.56600004 6.4393028e-40
-0.14259525 0.14044285 0.565 4.6061802e-40
-0.14176954 0.14069144 0.56600004 6.4536521e-40
-0.14069144 0.14069144 0.56600004 9.2051296e-40
-0.13961335 0.14069144 0.56600004 9.2015563e-40
-0.13878001 0.14094001 0.56700003 1.0127072e-39
-0.13770001 0.14094001 0.56700003 1.0127072e-39
-0.13686097 0.14118858 0.56800002 1.1045441e-39
-0.13816953 0.14367428 0.57800001 1.1049042e-39
-0.13683143 0.14342572 0.57700002 1.1963838e-39
-0.1357324 0.14342572 0.57700002 1.4722504e-39
-0.13463333 0.14342572 0.57700002 1.8399497e-39
-0.13353428 0.14342572 0.57700002 1.5647992e-39
-0.13243525 0.14342572 0.57700002 1.3811282e-39
-0.13133618 0.14342572 0.57700002 1.4729637e-39
-0.13023715 0.14342572 0.57700002 1.5651579e-39
-0.1291381 0.14342572 0.57700002 1.565518e-39
-0.12803906 0.14342572 0.57700002 1.6566361e-39
-0.12694 0.14342572 0.57700002 1.748473e-39
-0.12605904 0.14367428 0.57800001 1.8413861e-39
-0.1251743 0.14392288 0.57900006 1.8417462e-39
-0.12407143 0.14392288 0.57900006 1.9339376e-39
-0.12296859 0.14392288 0.57900006 2.0261304e-39
-0.12186573 0.14392288 0.57900006 2.1176086e-39
-0.12076286 0.14392288 0.57900006 2.1186848e-39
-0.11966001 0.14392288 0.57900006 2.1179715e-39
-0.11855715 0.14392288 0.57900006 2.1179757e-39
-0.1174543 0.14392288 0.57900006 2.1183317e-39
-0.11655239 0.14417143 0.58000004 2.1186862e-39
-0.11544763 0.14417143 0.58000004 2.1183289e-39
-0.11454 0.14442 0.58100003 2.2101672e-39
-0.11343334 0.14442 0.58100003 2.3012852e-39
-0.11232667 0.14442 0.58100003 2.4849576e-39
-0.11141143 0.14466858 0.58200002 2.7604641e-39
-0.11030286 0.14466858 0.58200002 2.7604641e-39
-0.1093819 0.14491713 0.583 2.7604641e-39
-0.10827143 0.14491713 0.583 2.7608228e-39
-0.10716095 0.14491713 0.583 2.7608214e-39
-0.10623238 0.14516573 0.58400005 2.7611787e-39
-0.10512 0.14516573 0.58400005 2.8530142e-39
-0.10400762 0.14516573 0.58400005 2.8530156e-39
-0.10289524 0.14516573 0.58400005 2.853017e-39
-0.10178287 0.14516573 0.58400005 2.7611844e-39
-0.10101524 0.14566286 0.58600003 2.761183e-39
-0.099899054 0.14566286 0.58600003 2.9448525e-39
-0.09878286 0.14566286 0.58600003 3.129241e-39
-0.097666666 0.14566286 0.58600003 3.1296011e-39
-0.096715242 0.14591143 0.58700001 3.2214352e-39
-0.095759995 0.14616001 0.588 3.221794e-39
-0.094800957 0.14640859 0.58900005 3.3139896e-39
-0.093679056 0.14640859 0.58900005 3.3139924e-39
-0.092714287 0.14665715 0.59000003 3.4058251e-39
-0.091745712 0.14690572 0.59100002 3.4058223e-39
-0.090620004 0.14690572 0.59100002 3.4987368e-39
-0.089797154 0.14740287 0.59300005 3.6827707e-39
-0.088817142 0.14765143 0.59400004 3.8668018e-39
-0.087833337 0.14790002 0.59500003 3.9597149e-39
-0.086845718 0.14814857 0.59600002 4.0511903e-39
-0.085854284 0.14839715 0.597 4.1444607e-39
-0.084717147 0.14839715 0.597 4.236299e-39
-0.083720006 0.14864573 0.59800005 4.3284975e-39
-0.08271905 0.1488943 0.59900004 4.5125314e-39
-0.081578098 0.1488943 0.59900004 4.6969254e-39
-0.080571435 0.14914286 0.60000002 4.8827628e-39
-0.07956095 0.14939143 0.60100001 5.1597197e-39
-0.078546673 0.14964001 0.60200006 5.5274106e-39
-0.077657141 0.15013716 0.60400003 5.5277609e-39
-0.076633334 0.15038571 0.60500002 5.5256029e-39
-0.07573048 0.15088287 0.60700005 5.0657038e-39
-0.074574292 0.15088287 0.60700005 4.696924e-39
-0.073901907 0.15187714 0.611 4.6969212e-39
-0.072738096 0.15187714 0.611 4.6969226e-39
-0.071808569 0.1523743 0.61300004 4.7887609e-39
-0.072023809 0.15535714 0.625 4.9727907e-39
-0.070833333 0.15535714 0.625 4.7894798e-39
-0.069754288 0.15560573 0.62600005 4.6976429e-39
-0.068561912 0.15560573 0.62600005 4.7894784e-39
-0.075763814 0.1749943 0.70400006 4.9731494e-39
-0.074422859 0.1749943 0.70400006 4.9731494e-39
-0.073185712 0.17524286 0.70500004 4.9735165e-39
-0.072046667 0.17574 0.70700002 5.4330612e-39
-0.070800006 0.17598857 0.708 5.8944078e-39
-0.069745712 0.17673428 0.71100003 6.1724423e-39
-0.068583816 0.17723145 0.71300006 6.5404933e-39
-0.067508571 0.17797714 0.71600002 6.5415611e-39
-0.066237144 0.17822573 0.71700001 6.6316001e-39
-0.064871423 0.17822573 0.71700001 6.3557307e-39
-0.063505717 0.17822573 0.71700001 6.1709821e-39
-0.054506667 0.19488001 0.78400004 5.9873097e-39
-0.053148571 0.19537714 0.78600001 5.8043576e-39
-0.051782858 0.1958743 0.78800005 5.7125221e-39
-0.050281905 0.1958743 0.78800005 5.8047163e-39
-0.049090479 0.19711715 0.79300004 5.9880272e-39
-0.049620003 0.20556857 0.82700002 5.8961917e-39
-0.048044764 0.20556857 0.82700002 5.8961931e-39
-0.046469525 0.20556857 0.82700002 5.9883901e-39
-0.044894286 0.20556857 0.82700002 6.0802256e-39
-0.043319046 0.20556857 0.82700002 6.1724213e-39
-0.041743811 0.20556857 0.82700002 6.3560951e-39
-0.040265717 0.20606573 0.82900006 6.3560979e-39
-0.038686667 0.20606573 0.82900006 6.4486522e-39
-0.03710762 0.20606573 0.82900006 6.541208e-39
0.53047621 0.24857143 1 9.3117642e-39
0.52918667 0.24707998 0.99400002 9.5872693e-39
0.52947718 0.24633428 0.99100006 9.4954338e-39
0.52975619 0.24558859 0.98800004 9.4035983e-39
0.53002381 0.24484287 0.98500007 9.312123e-39
0.53082001 0.24434572 0.98300004 9.2202875e-39
0.53106666 0.2436 0.98000002 9.2202889e-39
0.53293335 0.2436 0.98000002 9.2202889e-39
-0.30199811 0.16581525 0.66200006 4.6170682e-40
-0.29982859 0.16531429 0.66000003 4.6098796e-40
-0.2967619 0.16431238 0.65600002 3.6951119e-40
-0.29416096 0.16356096 0.65300006 3.7022866e-40
-0.29246858 0.16331047 0.65200001 3.7022866e-40
-0.29078001 0.16306001 0.65100002 3.7022866e-40
-0.28909525 0.16280954 0.65000004 3.7022866e-40
-0.28697142 0.16230856 0.648 3.7022446e-40
-0.28573713 0.16230856 0.648 3.6986152e-40
-0.28406382 0.1620581 0.64700001 4.6134249e-40
-0.28239429 0.16180763 0.64600003 4.6134669e-40
-0.28072858 0.16155715 0.64500004 4.6170963e-40
-0.27950001 0.16155715 0.64500004 3.6987833e-40
-0.27784002 0.16130668 0.64400005 3.6987833e-40
-0.2757543 0.16080572 0.64200002 3.6987833e-40
-0.27453142 0.16080572 0.64200002 3.6987833e-40
-0.27288285 0.16055524 0.64100003 3.6987833e-40
-0.27166194 0.16055524 0.64100003 3.7023146e-40
-0.27044097 0.16055524 0.64100003 3.7022726e-40
-0.26880002 0.16030477 0.64000005 3.6986853e-40
-0.26758096 0.16030477 0.64000005 4.6206416e-40
-0.26594573 0.16005431 0.63900006 5.5389965e-40
-0.26472861 0.16005431 0.63900006 4.6206416e-40
-0.26351145 0.16005431 0.63900006 3.6987553e-40
-0.26229432 0.16005431 0.63900006 2.7804564e-40
-0.26107717 0.16005431 0.63900006 2.776799e-40
-0.25986001 0.16005431 0.63900006 2.776743e-40
-0.25864285 0.16005431 0.63900006 3.6986853e-40
-0.25702286 0.15980381 0.63800001 3.6986853e-40
-0.25580761 0.15980381 0.63800001 4.6170402e-40
-0.25459236 0.15980381 0.63800001 3.6986853e-40
-0.25337714 0.15980381 0.63800001 2.7803303e-40
-0.25216192 0.15980381 0.63800001 3.6986853e-40
-0.25094667 0.15980381 0.63800001 3.7022726e-40
-0.24973144 0.15980381 0.63800001 3.6986853e-40
-0.2485162 0.15980381 0.63800001 2.7803303e-40
-0.24730097 0.15980381 0.63800001 2.7803303e-40
-0.24608572 0.15980381 0.63800001 2.7803163e-40
-0.24487048 0.15980381 0.63800001 2.776729e-40
-0.24365523 0.15980381 0.63800001 2.7731276e-40
-0.24244002 0.15980381 0.63800001 2.7695403e-40
-0.24122477 0.15980381 0.63800001 2.7694983e-40
-0.24000953 0.15980381 0.63800001 2.7694702e-40
-0.2387943 0.15980381 0.63800001 2.7730576e-40
-0.23795146 0.16005431 0.63900006 2.7694702e-40
-0.23673432 0.16005431 0.63900006 3.6878532e-40
-0.23551717 0.16005431 0.63900006 2.7695403e-40
-0.23430003 0.16005431 0.63900006 2.7731556e-40
-0.23344763 0.16030477 0.64000005 2.7696104e-40
-0.23222858 0.16030477 0.64000005 2.765981e-40
-0.23100953 0.16030477 0.64000005 2.7695403e-40
-0.22979049 0.16030477 0.64000005 3.6879373e-40
-0.22857144 0.16030477 0.64000005 4.6099216e-40
-0.22770764 0.16055524 0.64100003 5.5318639e-40
-0.22648667 0.16055524 0.64100003 6.4609949e-40
-0.22526571 0.16055524 0.64100003 7.3937131e-40
-0.22404477 0.16055524 0.64100003 7.3937412e-40
-0.22282381 0.16055524 0.64100003 8.3156834e-40
-0.22160287 0.16055524 0.64100003 8.3085088e-40
-0.22038192 0.16055524 0.64100003 8.3085088e-40
-0.21916097 0.16055524 0.64100003 8.3085088e-40
-0.2006 0.14778097 0.59000003 8.3157255e-40
-0.1994762 0.14778097 0.59000003 8.3157675e-40
-0.19835238 0.14778097 0.59000003 9.2341785e-40
-0.1968943 0.14753048 0.58900005 1.0156191e-39
-0.19510762 0.14702952 0.58700001 1.1078105e-39
-0.19365905 0.14677906 0.58600003 1.2000019e-39
-0.19254287 0.14677906 0.58600003 1.2922004e-39
-0.19077334 0.1462781 0.58400005 1.1078161e-39
-0.1893362 0.14602761 0.583 9.2342206e-40
-0.18790285 0.14577715 0.58200002 9.2305772e-40
-0.18647334 0.14552668 0.58100003 9.2305632e-40
-0.18472858 0.14502572 0.57900006 7.3938392e-40
-0.18330857 0.14477524 0.57800001 6.4791136e-40
-0.1818924 0.14452477 0.57700002 7.3939233e-40
-0.18048 0.14427429 0.57600003 9.2270459e-40
-0.17938286 0.14427429 0.57600003 9.2306473e-40
-0.17797621 0.14402382 0.57500005 9.2342206e-40
-0.17657332 0.14377333 0.574 7.4226219e-40
-0.17547999 0.14377333 0.574 6.504309e-40
-0.17408286 0.14352286 0.57300001 7.42272e-40
-0.17299144 0.14352286 0.57300001 9.2630593e-40
-0.17130001 0.14302191 0.57100004 1.0181456e-39
-0.17021239 0.14302191 0.57100004 1.2021754e-39
-0.16882859 0.14277144 0.57000005 1.2021768e-39
-0.16744857 0.14252095 0.56900001 1.2025313e-39
-0.16607238 0.14227048 0.56800002 1.110693e-39
-0.16470002 0.14202 0.56700003 1.110693e-39
-0.16333145 0.14176954 0.56600004 1.1103343e-39
-0.16225335 0.14176954 0.56600004 1.1103329e-39
-0.16117525 0.14176954 0.56600004 9.2558426e-40
-0.16009717 0.14176954 0.56600004 8.330299e-40
-0.15901907 0.14176954 0.56600004 9.2414793e-40
-0.15794097 0.14176954 0.56600004 1.0156149e-39
-0.15686287 0.14176954 0.56600004 7.3902379e-40
-0.15578479 0.14176954 0.56600004 4.624355e-40
-0.15470669 0.14176954 0.56600004 4.6171383e-40
-0.15362859 0.14176954 0.56600004 4.6099356e-40
-0.15255049 0.14176954 0.56600004 4.6063203e-40
-0.15147239 0.14176954 0.56600004 4.6026909e-40
-0.15039431 0.14176954 0.56600004 3.6842939e-40
-0.14905238 0.14151904 0.565 3.6807066e-40
-0.14823811 0.14176954 0.56600004 4.6026629e-40
-0.1469 0.14151904 0.565 6.4393308e-40
-0.14582381 0.14151904 0.565 7.3576577e-40
-0.14474761 0.14151904 0.565 7.361245e-40
-0.14367142 0.14151904 0.565 6.4429041e-40
-0.14259525 0.14151904 0.565 5.5245351e-40
-0.14151904 0.14151904 0.565 7.3684057e-40
-0.14069144 0.14176954 0.56600004 1.0127086e-39
-0.13961335 0.14176954 0.56600004 1.0127114e-39
-0.1395143 0.14277144 0.57000005 1.0127086e-39
-0.13842857 0.14277144 0.57000005 1.0127072e-39
-0.13878858 0.14427429 0.57600003 1.1041868e-39
-0.13793048 0.14452477 0.57700002 1.1045497e-39
-0.13683143 0.14452477 0.57700002 1.1963852e-39
-0.1357324 0.14452477 0.57700002 1.3804149e-39
-0.13463333 0.14452477 0.57700002 1.5648006e-39
-0.13353428 0.14452477 0.57700002 1.4729637e-39
-0.13243525 0.14452477 0.57700002 1.3811282e-39
-0.13133618 0.14452477 0.57700002 1.3811282e-39
-0.13023715 0.14452477 0.57700002 1.4729637e-39
-0.1291381 0.14452477 0.57700002 1.4729651e-39
-0.12803906 0.14452477 0.57700002 1.5640831e-39
-0.12694 0.14452477 0.57700002 1.6569948e-39
-0.12584096 0.14452477 0.57700002 1.7499079e-39
-0.1251743 0.14502572 0.57900006 1.9335817e-39
-0.12407143 0.14502572 0.57900006 2.1176114e-39
-0.12296859 0.14502572 0.57900006 2.0254172e-39
-0.12186573 0.14502572 0.57900006 2.0254144e-39
-0.12076286 0.14502572 0.57900006 2.0254116e-39
-0.11966001 0.14502572 0.57900006 2.0257731e-39
-0.11855715 0.14502572 0.57900006 2.1172541e-39
-0.1174543 0.14502572 0.57900006 2.3009209e-39
-0.11635144 0.14502572 0.57900006 2.3016355e-39
-0.11524858 0.14502572 0.57900006 2.3023572e-39
-0.11434286 0.1452762 0.58000004 2.3934794e-39
-0.11343334 0.14552668 0.58100003 2.4849562e-39
-0.11213334 0.1452762 0.58000004 2.5767931e-39
-0.11122 0.14552668 0.58100003 2.7604641e-39
-0.11030286 0.14577715 0.58200002 2.6686286e-39
-0.1093819 0.14602761 0.583 2.6686286e-39
-0.10827143 0.14602761 0.583 2.7604641e-39
-0.10716095 0.14602761 0.583 2.7611787e-39
-0.10623238 0.1462781 0.58400005 2.7611759e-39
-0.10512 0.1462781 0.58400005 2.7611787e-39
-0.10400762 0.1462781 0.58400005 2.761183e-39
-0.10271905 0.14602761 0.583 2.8530184e-39
-0.10178287 0.1462781 0.58400005 2.8530199e-39
-0.10084286 0.14652859 0.58500004 2.8526569e-39
-0.099899054 0.14677906 0.58600003 2.9448483e-39
-0.09878286 0.14677906 0.58600003 3.1292368e-39
-0.097666666 0.14677906 0.58600003 3.1292368e-39
-0.096715242 0.14702952 0.58700001 3.1295969e-39
-0.09559714 0.14702952 0.58700001 3.221794e-39
-0.094640002 0.14727999 0.588 3.2221527e-39
-0.093520001 0.14727999 0.588 3.2221527e-39
-0.092714287 0.14778097 0.59000003 3.1310319e-39
-0.091745712 0.14803143 0.59100002 3.222866e-39
-0.090620004 0.14803143 0.59100002 3.3147057e-39
-0.089645714 0.1482819 0.59200001 3.498741e-39
-0.088667624 0.14853239 0.59300005 3.6827707e-39
-0.087685719 0.14878286 0.59400004 3.7749663e-39
-0.0867 0.14903334 0.59500003 3.8675207e-39
-0.085710481 0.14928381 0.59600002 3.9593576e-39
-0.084717147 0.14953429 0.597 4.0511959e-39
-0.083720006 0.14978477 0.59800005 4.1441118e-39
-0.082580961 0.14978477 0.59800005 4.3285031e-39
-0.081578098 0.15003523 0.59900004 4.5125356e-39
-0.080437146 0.15003523 0.59900004 4.7898427e-39
-0.079428568 0.15028572 0.60000002 5.0664324e-39
-0.078546673 0.15078668 0.60200006 5.4352079e-39
-0.077528574 0.15103714 0.60300004 5.8025485e-39
-0.076633334 0.1515381 0.60500002 6.078055e-39
-0.07573048 0.15203905 0.60700005 5.5256071e-39
-0.074574292 0.15203905 0.60700005 4.9731508e-39
-0.073660001 0.15254 0.60900003 4.7891141e-39
-0.072857149 0.15329143 0.61200005 4.695845e-39
-0.071808569 0.15354191 0.61300004 4.6962066e-39
-0.070640959 0.15354191 0.61300004 4.7884008e-39
-0.070606664 0.15604667 0.62300003 4.6965653e-39
-0.069420002 0.15604667 0.62300003 4.6969226e-39
-0.068452381 0.15654762 0.625 4.6965639e-39
-0.075656191 0.17608477 0.70300001 4.7880393e-39
-0.07431715 0.17608477 0.70300001 4.7887553e-39
-0.072978094 0.17608477 0.70300001 4.8813167e-39
-0.071842864 0.17658572 0.70500004 5.1571903e-39
-0.070800006 0.17733714 0.708 5.5256183e-39
-0.069745712 0.17808858 0.71100003 5.8032884e-39
-0.068391435 0.17808858 0.71100003 6.0802298e-39
-0.067225717 0.17858954 0.71300006 6.2639022e-39
-0.066144764 0.17934094 0.71600002 6.4475676e-39
-0.064599998 0.17884001 0.71400005 6.1713395e-39
-0.063240007 0.17884001 0.71400005 5.9873083e-39
-0.054019999 0.19462 0.77700001 5.7096466e-39
-0.052540001 0.19462 0.77700001 5.6185286e-39
-0.051782858 0.19737525 0.78800005 5.5274092e-39
-0.050473336 0.19812667 0.79100001 5.5274092e-39
-0.049090479 0.19862762 0.79300004 5.6192447e-39
-0.047580004 0.19862762 0.79300004 5.5274106e-39
-0.046069525 0.19862762 0.79300004 5.527412e-39
-0.046469525 0.20714381 0.82700002 5.7110858e-39
-0.044894286 0.20714381 0.82700002 5.8951169e-39
-0.043319046 0.20714381 0.82700002 5.9873125e-39
-0.041743811 0.20714381 0.82700002 6.0798669e-39
-0.040265717 0.20764476 0.82900006 6.0798697e-39
-0.038686667 0.20764476 0.82900006 6.0802284e-39
-0.03710762 0.20764476 0.82900006 6.0802298e-39
-0.035528574 0.20764476 0.82900006 6.1720653e-39
0.53047621 0.25047618 1 9.1277317e-39
0.52918667 0.24897332 0.99400002 9.3117614e-39
0.52787429 0.24747047 0.98800004 9.2199273e-39
0.52975619 0.24747047 0.98800004 9.2199259e-39
0.53002381 0.24671906 0.98500007 9.1280904e-39
0.53082001 0.24621812 0.98300004 9.1284506e-39
0.53106666 0.24546665 0.98000002 9.128452e-39
0.53293335 0.24546665 0.98000002 9.1280932e-39
-0.30199811 0.16707622 0.66200006 5.5282345e-40
-0.30028287 0.16682382 0.66100001 5.5282205e-40
-0.29766667 0.16606668 0.65800005 4.6062782e-40
-0.29551238 0.16556191 0.65600002 3.6987133e-40
-0.2938143 0.16530953 0.65500003 3.6987413e-40
-0.29122666 0.16455238 0.65200001 3.6987273e-40
-0.28953999 0.16429999 0.65100002 3.7023146e-40
-0.28785717 0.16404763 0.65000004 3.7022726e-40
-0.28573713 0.16354285 0.648 4.6134109e-40
-0.28406382 0.16329047 0.64700001 6.4501488e-40
-0.28239429 0.16303809 0.64600003 6.4501768e-40
-0.28116381 0.16303809 0.64600003 6.4538062e-40
-0.27950001 0.16278572 0.64500004 4.6207256e-40
-0.27827147 0.16278572 0.64500004 3.6987974e-40
-0.27661335 0.16253334 0.64400005 3.6952381e-40
-0.27453142 0.16202858 0.64200002 3.6987974e-40
-0.27288285 0.1617762 0.64100003 3.6987833e-40
-0.27166194 0.1617762 0.64100003 3.6987553e-40
-0.27044097 0.1617762 0.64100003 3.7023146e-40
-0.26880002 0.16152382 0.64000005 3.7023006e-40
-0.26758096 0.16152382 0.64000005 5.5389825e-40
-0.26594573 0.16127145 0.63900006 7.3757205e-40
-0.26472861 0.16127145 0.63900006 5.5426259e-40
-0.26351145 0.16127145 0.63900006 3.6987693e-40
-0.26229432 0.16127145 0.63900006 3.6987974e-40
-0.26107717 0.16127145 0.63900006 3.695154e-40
-0.25986001 0.16127145 0.63900006 2.7803303e-40
-0.25864285 0.16127145 0.63900006 2.7803303e-40
-0.25702286 0.16101906 0.63800001 4.6098656e-40
-0.25580761 0.16101906 0.63800001 6.4537501e-40
-0.25459236 0.16101906 0.63800001 4.6206275e-40
-0.25337714 0.16101906 0.63800001 3.6987133e-40
-0.25216192 0.16101906 0.63800001 3.7023146e-40
-0.25094667 0.16101906 0.63800001 3.6987413e-40
-0.24973144 0.16101906 0.63800001 3.6987413e-40
-0.2485162 0.16101906 0.63800001 3.6987133e-40
-0.24730097 0.16101906 0.63800001 2.7803163e-40
-0.24608572 0.16101906 0.63800001 2.776729e-40
-0.24487048 0.16101906 0.63800001 2.7731276e-40
-0.24403715 0.16127145 0.63900006 2.7731416e-40
-0.24244002 0.16101906 0.63800001 2.7695683e-40
-0.24122477 0.16101906 0.63800001 3.6878953e-40
-0.24000953 0.16101906 0.63800001 3.6842659e-40
-0.2387943 0.16101906 0.63800001 3.6914405e-40
-0.23757905 0.16101906 0.63800001 3.6878532e-40
-0.23673432 0.16127145 0.63900006 3.6878812e-40
-0.23551717 0.16127145 0.63900006 3.6878953e-40
-0.23430003 0.16127145 0.63900006 3.6915246e-40
-0.23344763 0.16152382 0.64000005 2.7731977e-40
-0.23222858 0.16152382 0.64000005 2.7695963e-40
-0.23100953 0.16152382 0.64000005 3.6879373e-40
-0.22979049 0.16152382 0.64000005 4.6062923e-40
-0.22857144 0.16152382 0.64000005 3.6879513e-40
-0.2273524 0.16152382 0.64000005 3.69514e-40
-0.22648667 0.1617762 0.64100003 4.6278582e-40
-0.22526571 0.1617762 0.64100003 6.4681835e-40
-0.22404477 0.1617762 0.64100003 9.2340524e-40
-0.22282381 0.1617762 0.64100003 1.2903885e-39
-0.22160287 0.1617762 0.64100003 1.0145247e-39
-0.22038192 0.1617762 0.64100003 8.3085368e-40
-0.21916097 0.1617762 0.64100003 8.3121382e-40
-0.2006 0.14890477 0.59000003 8.3121522e-40
-0.1994762 0.14890477 0.59000003 9.2340945e-40
-0.19835238 0.14890477 0.59000003 1.0156121e-39
-0.19722858 0.14890477 0.59000003 1.0159792e-39
-0.19544001 0.14840001 0.588 1.1074504e-39
-0.19365905 0.14789525 0.58600003 1.1070874e-39
-0.1922143 0.14764287 0.58500004 1.1070902e-39
-0.19077334 0.14739048 0.58400005 1.0156177e-39
-0.1893362 0.14713809 0.583 9.2342066e-40
-0.18790285 0.14688572 0.58200002 9.2341785e-40
-0.18679428 0.14688572 0.58200002 9.2269759e-40
-0.18504764 0.14638096 0.58000004 9.2269618e-40
-0.18362573 0.14612858 0.57900006 9.2269759e-40
-0.1818924 0.1456238 0.57700002 9.2270039e-40
-0.18079334 0.1456238 0.57700002 9.2269899e-40
-0.17938286 0.14537144 0.57600003 9.2341645e-40
-0.17797621 0.14511906 0.57500005 1.0152533e-39
-0.17657332 0.14486666 0.574 8.3373615e-40
-0.17547999 0.14486666 0.574 6.5007077e-40
-0.17408286 0.14461428 0.57300001 8.341075e-40
-0.17268953 0.1443619 0.57200003 1.0177813e-39
-0.17130001 0.14410953 0.57100004 1.0181428e-39
-0.17021239 0.14410953 0.57100004 1.1099797e-39
-0.16882859 0.14385717 0.57000005 1.1099811e-39
-0.16744857 0.14360477 0.56900001 1.1099769e-39
-0.16607238 0.14335239 0.56800002 1.1099727e-39
-0.16470002 0.14310001 0.56700003 1.1103314e-39
-0.16362001 0.14310001 0.56700003 1.0188533e-39
-0.16225335 0.14284763 0.56600004 9.2629752e-40
-0.16117525 0.14284763 0.56600004 8.3374316e-40
-0.16009717 0.14284763 0.56600004 7.4082866e-40
-0.15901907 0.14284763 0.56600004 7.401098e-40
-0.15794097 0.14284763 0.56600004 8.3085789e-40
-0.15686287 0.14284763 0.56600004 5.5462412e-40
-0.15578479 0.14284763 0.56600004 3.695154e-40
-0.15470669 0.14284763 0.56600004 3.6879513e-40
-0.15362859 0.14284763 0.56600004 3.68435e-40
-0.15228096 0.14259525 0.565 4.6026909e-40
-0.15120476 0.14259525 0.565 6.4393588e-40
-0.15012856 0.14259525 0.565 4.6026209e-40
-0.14905238 0.14259525 0.565 3.6842659e-40
-0.14797619 0.14259525 0.565 5.5209758e-40
-0.1469 0.14259525 0.565 7.3576717e-40
-0.14582381 0.14259525 0.565 7.361245e-40
-0.14474761 0.14259525 0.565 7.3612731e-40
-0.14367142 0.14259525 0.565 6.4429321e-40
-0.14259525 0.14259525 0.565 6.4429181e-40
-0.14176954 0.14284763 0.56600004 8.2832013e-40
-0.14069144 0.14284763 0.56600004 1.1041868e-39
-0.13986 0.14310001 0.56700003 1.1045469e-39
-0.13878001 0.14310001 0.56700003 1.1045441e-39
-0.13988572 0.14537144 0.57600003 1.1045427e-39
-0.13902952 0.1456238 0.57700002 1.1049028e-39
-0.13793048 0.1456238 0.57700002 1.105263e-39
-0.13683143 0.1456238 0.57700002 1.1970999e-39
-0.1357324 0.1456238 0.57700002 1.1971027e-39
-0.13463333 0.1456238 0.57700002 1.2889353e-39
-0.13353428 0.1456238 0.57700002 1.2889325e-39
-0.13243525 0.1456238 0.57700002 1.3811268e-39
-0.13133618 0.1456238 0.57700002 1.3811282e-39
-0.13023715 0.1456238 0.57700002 1.3811282e-39
