# .PCD v0.7 - Point Cloud Data file format
VERSION 0.7
FIELDS x y z rgb
SIZE 4 4 4 4
TYPE F F F F
COUNT 1 1 1 1
WIDTH 983
HEIGHT 1
VIEWPOINT 0 0 0 1 0 0 0
POINTS 983
DATA ascii
-0.18442668 0.078400008 0.78400004 2.5872636e-39
-0.18340001 0.078599997 0.78600001 2.8634918e-39
-0.18190286 0.078599997 0.78600001 3.0478858e-39
-0.18086477 0.078800008 0.78800005 3.324114e-39
-0.17936382 0.078800008 0.78800005 3.5999834e-39
-0.17808858 0.078900002 0.78900003 3.8765689e-39
-0.17658572 0.078900002 0.78900003 4.0613203e-39
-0.17508286 0.078900002 0.78900003 4.3379002e-39
-0.17358001 0.078900002 0.78900003 4.0623923e-39
-0.17207715 0.078900002 0.78900003 3.8779996e-39
-0.17100666 0.079099998 0.79100001 3.784725e-39
-0.17078573 0.079700001 0.79700005 3.7840075e-39
-0.16990477 0.079999998 0.80000001 3.5996191e-39
-0.1688019 0.080200009 0.80200005 3.4159467e-39
-0.16769142 0.080400005 0.80400002 3.5077822e-39
-0.16657335 0.080600001 0.80600005 3.5996177e-39
-0.16503811 0.080600001 0.80600005 3.4159481e-39
-0.16350286 0.080600001 0.80600005 3.3255475e-39
-0.16236953 0.080800004 0.80800003 3.6010554e-39
-0.16122858 0.081 0.81000006 3.8765647e-39
-0.16008002 0.081200004 0.81200004 3.6928965e-39
-0.15853333 0.081200004 0.81200004 3.6014211e-39
-0.15698668 0.081200004 0.81200004 3.6021386e-39
-0.15582286 0.0814 0.81400001 3.6014211e-39
-0.15427239 0.0814 0.81400001 3.6928979e-39
-0.15272191 0.0814 0.81400001 3.8769276e-39
-0.15135716 0.081500001 0.81500006 3.7843747e-39
-0.14980477 0.081500001 0.81500006 3.7843719e-39
-0.14861619 0.081700005 0.81700003 3.7843691e-39
-0.14742002 0.081900008 0.81900007 3.7843705e-39
-0.14586002 0.081900008 0.81900007 3.7843719e-39
-0.14430001 0.081900008 0.81900007 3.8769276e-39
-0.14308858 0.082100004 0.82100004 4.0623951e-39
-0.14152478 0.082100004 0.82100004 4.2464276e-39
-0.1403019 0.0823 0.82300001 4.4304601e-39
-0.13907143 0.082500003 0.82500005 4.613771e-39
-0.13750002 0.082500003 0.82500005 4.4297385e-39
-0.1362581 0.082699999 0.82700002 4.3378988e-39
-0.13468286 0.082699999 0.82700002 4.3375358e-39
-0.13342954 0.082900003 0.82900006 4.337896e-39
-0.13216858 0.083100006 0.83100003 4.1542278e-39
-0.13090001 0.083300002 0.83300006 3.970198e-39
-0.12962382 0.083500005 0.83500004 3.9687631e-39
-0.12803334 0.083500005 0.83500004 3.9684016e-39
-0.12674572 0.083700001 0.83700001 3.8754857e-39
-0.12545048 0.083899997 0.83900005 3.7836544e-39
-0.12385239 0.083899997 0.83900005 3.8758528e-39
-0.12225429 0.083899997 0.83900005 4.0606028e-39
-0.1206562 0.083899997 0.83900005 4.337547e-39
-0.11934191 0.084100001 0.84100002 4.6148472e-39
-0.11774001 0.084100001 0.84100002 4.7999545e-39
-0.11613809 0.084100001 0.84100002 4.9843458e-39
-0.11480858 0.084300004 0.84300005 4.8928718e-39
-0.11347143 0.084500007 0.84500003 4.8914341e-39
-0.1133181 0.085600004 0.85600007 4.7988783e-39
-0.11220952 0.086000003 0.86000001 4.7066827e-39
-0.11082857 0.086199999 0.86200005 4.4308161e-39
-0.10918667 0.086199999 0.86200005 4.2471437e-39
-0.10791906 0.086500004 0.86500007 4.1553068e-39
-0.10651714 0.0867 0.86700004 4.0627538e-39
-0.10510762 0.086900003 0.86900002 3.9705596e-39
-0.10345238 0.086900003 0.86900002 3.9702022e-39
-0.10203143 0.087099999 0.87100005 3.8783668e-39
-0.10037239 0.087099999 0.87100005 3.8780052e-39
-0.09894 0.087300003 0.87300003 4.061672e-39
-0.09727715 0.087300003 0.87300003 4.2453458e-39
-0.095833339 0.087500006 0.87500006 4.3375414e-39
-0.09448953 0.087800004 0.87800002 4.4293797e-39
-0.093028575 0.088000007 0.88000005 4.7052492e-39
-0.091352388 0.088000007 0.88000005 5.0740233e-39
-0.089676194 0.088000007 0.88000005 4.5226488e-39
-0.088000007 0.088000007 0.88000005 4.0620307e-39
-0.087206677 0.088900007 0.88900006 3.9694736e-39
-0.086860001 0.090300001 0.90300006 3.8765577e-39
-0.085328571 0.090499997 0.90500003 3.5999722e-39
-0.083604768 0.090499997 0.90500003 3.4152236e-39
-0.081880957 0.090499997 0.90500003 3.0471627e-39
-0.080422863 0.090800002 0.90800005 2.7712989e-39
-0.078693338 0.090800002 0.90800005 2.5865531e-39
-0.076963812 0.090800002 0.90800005 2.403601e-39
-0.075234286 0.090800002 0.90800005 2.7716633e-39
-0.073666662 0.091000006 0.91000003 3.2326414e-39
-0.071933329 0.091000006 0.91000003 3.9687673e-39
-0.070199996 0.091000006 0.91000003 4.7992398e-39
-0.068316191 0.090800002 0.90800005 5.2609355e-39
-0.06673333 0.091000006 0.91000003 5.7215451e-39
-0.064999998 0.091000006 0.91000003 5.5375125e-39
-0.065004766 0.093500003 0.93500006 5.3538401e-39
-0.063359044 0.093699999 0.93700004 5.2620047e-39
-0.06177143 0.094000004 0.94000006 5.1690944e-39
-0.059980955 0.094000004 0.94000006 5.7193927e-39
-0.05831429 0.0942 0.94200003 6.2725594e-39
-0.056880001 0.09480001 0.94800007 6.9182806e-39
-0.055364765 0.095300011 0.95300007 7.5622095e-39
-0.053661905 0.0955 0.95500004 7.8387977e-39
-0.05216857 0.096100003 0.96100003 8.1128581e-39
-0.050338093 0.096100003 0.96100003 7.7419176e-39
-0.048608571 0.096300006 0.96300006 7.375656e-39
-0.046920002 0.096599996 0.96600002 7.5607675e-39
-0.045079999 0.096599996 0.96600002 7.7444343e-39
-0.043374289 0.096900001 0.96900004 7.468925e-39
-0.041528575 0.096900001 0.96900004 7.284175e-39
-0.039682861 0.096900001 0.96900004 6.3604363e-39
-0.037837144 0.096900001 0.96900004 5.4413624e-39
-0.036102857 0.097200006 0.97200006 4.7977965e-39
-0.034145713 0.096900001 0.96900004 4.2475038e-39
-0.032299999 0.096900001 0.96900004 4.2485842e-39
-0.29381526 0.077243812 0.75800002 4.3375442e-39
-0.29044285 0.076734282 0.75300002 4.337903e-39
-0.28862476 0.076632388 0.75200003 4.2460675e-39
-0.2864286 0.076428577 0.75000006 4.1542306e-39
-0.28424001 0.076224767 0.74800003 4.1535131e-39
-0.28168097 0.075919047 0.74500006 4.153153e-39
-0.28026193 0.075919047 0.74500006 4.0605986e-39
-0.27809429 0.075715244 0.74300003 4.0602385e-39
-0.27667904 0.075715244 0.74300003 4.0595196e-39
-0.27526382 0.075715244 0.74300003 3.966961e-39
-0.27384859 0.075715244 0.74300003 3.7829271e-39
-0.27206668 0.075613335 0.74200004 3.5988974e-39
-0.27065334 0.075613335 0.74200004 3.4148677e-39
-0.26924002 0.075613335 0.74200004 3.2301163e-39
-0.26782668 0.075613335 0.74200004 3.138278e-39
-0.26569524 0.075409524 0.74000001 3.1382794e-39
-0.26428571 0.075409524 0.74000001 3.1372046e-39
-0.26252094 0.075307623 0.73900002 3.2290415e-39
-0.2604067 0.075103819 0.73700005 3.3212371e-39
-0.25900286 0.075103819 0.73700005 3.4137915e-39
-0.25724956 0.07500191 0.73600006 3.506706e-39
-0.25515237 0.0747981 0.73400003 3.5996233e-39
-0.25375429 0.0747981 0.73400003 3.6936168e-39
-0.25166857 0.074594289 0.73200005 3.7876089e-39
-0.24993239 0.07449238 0.73100001 3.9716428e-39
-0.24854001 0.07449238 0.73100001 4.1556711e-39
-0.24714762 0.07449238 0.73100001 4.2475052e-39
-0.24508286 0.074288577 0.72900003 4.2475038e-39
-0.24369429 0.074288577 0.72900003 4.0620377e-39
-0.24230571 0.074288577 0.72900003 3.876929e-39
-0.24091715 0.074288577 0.72900003 3.6003449e-39
-0.23952857 0.074288577 0.72900003 3.4159481e-39
-0.23879333 0.07449238 0.73100001 3.3233881e-39
-0.23740095 0.07449238 0.73100001 3.2311897e-39
-0.23600857 0.07449238 0.73100001 2.9553216e-39
-0.23461619 0.07449238 0.73100001 2.679818e-39
-0.2332238 0.07449238 0.73100001 2.6794634e-39
-0.23183143 0.07449238 0.73100001 2.7709402e-39
-0.23043904 0.07449238 0.73100001 2.7709416e-39
-0.22904667 0.07449238 0.73100001 2.7713017e-39
-0.22765428 0.07449238 0.73100001 2.9553329e-39
-0.22657146 0.074594289 0.73200005 3.2322799e-39
-0.22517715 0.074594289 0.73200005 3.3248398e-39
-0.22378287 0.074594289 0.73200005 3.5095884e-39
-0.22238858 0.074594289 0.73200005 3.7861725e-39
-0.2215981 0.0747981 0.73400003 4.0638286e-39
-0.2202 0.0747981 0.73400003 3.9712742e-39
-0.2188019 0.0747981 0.73400003 3.9709141e-39
-0.21740381 0.0747981 0.73400003 3.87585e-39
-0.21600573 0.0747981 0.73400003 3.7811377e-39
-0.21519241 0.07500191 0.73600006 3.5059843e-39
-0.21379049 0.07500191 0.73600006 3.3230238e-39
-0.21267717 0.075103819 0.73700005 3.2308239e-39
-0.21184668 0.075307623 0.73900002 3.1386311e-39
-0.21072382 0.075409524 0.74000001 2.9549629e-39
-0.20988001 0.075613335 0.74200004 2.7702101e-39
-0.20846668 0.075613335 0.74200004 2.5861748e-39
-0.20705333 0.075613335 0.74200004 2.4025108e-39
-0.20591715 0.075715244 0.74300003 2.1266526e-39
-0.20422669 0.075613335 0.74200004 1.850786e-39
-0.20308667 0.075715244 0.74300003 2.402515e-39
-0.2022143 0.075919047 0.74500006 2.9531721e-39
-0.2013343 0.076122858 0.74700004 3.3230294e-39
-0.19991145 0.076122858 0.74700004 3.6925294e-39
-0.19848858 0.076122858 0.74700004 4.061672e-39
-0.19706571 0.076122858 0.74700004 4.4308161e-39
-0.19590478 0.076224767 0.74800003 4.7981665e-39
-0.19448 0.076224767 0.74800003 5.1655e-39
-0.19357145 0.076428577 0.75000006 4.4293741e-39
-0.19291143 0.076734282 0.75300002 3.7850781e-39
-0.19503714 0.078160949 0.76700002 3.3240958e-39
-0.19382857 0.078262858 0.76800001 2.8627617e-39
-0.19336763 0.078670479 0.77200001 2.4017863e-39
-0.19214574 0.078772388 0.77300006 2.0344457e-39
-0.19116667 0.078976192 0.77500004 2.5872552e-39
-0.19017999 0.079180002 0.77700001 3.1386283e-39
-0.18870001 0.079180002 0.77700001 2.8624071e-39
-0.18770191 0.079383813 0.77900004 2.4943449e-39
-0.18645716 0.079485722 0.78000003 2.402508e-39
-0.18544573 0.079689525 0.78200006 2.3106753e-39
-0.18395621 0.079689525 0.78200006 2.5869021e-39
-0.18293335 0.079893336 0.78400004 2.8631302e-39
-0.18190286 0.080097146 0.78600001 3.0475229e-39
-0.18040572 0.080097146 0.78600001 3.3241098e-39
-0.17936382 0.080300957 0.78800005 3.5996219e-39
-0.17786287 0.080300957 0.78800005 3.8769248e-39
-0.1763619 0.080300957 0.78800005 4.1531516e-39
-0.17508286 0.080402859 0.78900003 4.4297343e-39
-0.17358001 0.080402859 0.78900003 4.2457045e-39
-0.17207715 0.080402859 0.78900003 4.0620279e-39
-0.17057429 0.080402859 0.78900003 3.8769164e-39
-0.17078573 0.081218101 0.79700005 3.6928881e-39
-0.16948001 0.081320003 0.79800004 3.4155893e-39
-0.1688019 0.081727624 0.80200005 3.2319155e-39
-0.1672743 0.081727624 0.80200005 3.3241084e-39
-0.16616 0.081931427 0.80400002 3.5081395e-39
-0.16462857 0.081931427 0.80400002 3.3244699e-39
-0.16350286 0.082135238 0.80600005 3.2337106e-39
-0.16196762 0.082135238 0.80600005 3.417383e-39
-0.16083048 0.082339048 0.80800003 3.6006981e-39
-0.15968573 0.082542859 0.81000006 3.601061e-39
-0.15853333 0.08274667 0.81200004 3.693614e-39
-0.15698668 0.08274667 0.81200004 3.6014211e-39
-0.15582286 0.082950473 0.81400001 3.6014211e-39
-0.15427239 0.082950473 0.81400001 3.7850921e-39
-0.15272191 0.082950473 0.81400001 3.9687631e-39
-0.15117142 0.082950473 0.81400001 3.8765689e-39
-0.14980477 0.083052389 0.81500006 3.8765647e-39
-0.14825238 0.083052389 0.81500006 3.7843663e-39
-0.14706001 0.083256193 0.81700003 3.7847278e-39
-0.14550382 0.083256193 0.81700003 3.601061e-39
-0.14430001 0.083460003 0.81900007 3.4177515e-39
-0.14274001 0.083460003 0.81900007 3.7858138e-39
-0.14152478 0.083663814 0.82100004 4.1538774e-39
-0.1403019 0.083867624 0.82300001 4.2467933e-39
-0.13907143 0.084071428 0.82500005 4.4308189e-39
-0.13716668 0.083867624 0.82300001 4.3382631e-39
-0.13592857 0.084071428 0.82500005 4.2460619e-39
-0.13468286 0.084275246 0.82700002 4.2460563e-39
-0.13342954 0.084479049 0.82900006 4.1542236e-39
-0.13216858 0.084682859 0.83100003 4.0623923e-39
-0.13058572 0.084682859 0.83100003 3.9709155e-39
-0.12931333 0.08488667 0.83300006 3.8776465e-39
-0.12803334 0.085090473 0.83500004 3.8765675e-39
-0.12644285 0.085090473 0.83500004 3.7840117e-39
-0.12515143 0.085294284 0.83700001 3.6918203e-39
-0.12355714 0.085294284 0.83700001 3.6925406e-39
-0.12225429 0.085498095 0.83900005 3.7850949e-39
-0.1206562 0.085498095 0.83900005 4.0616804e-39
-0.1190581 0.085498095 0.83900005 4.3386232e-39
-0.11774001 0.085701905 0.84100002 4.5240907e-39
-0.11613809 0.085701905 0.84100002 4.8006776e-39
-0.11453619 0.085701905 0.84100002 4.8010419e-39
-0.11320286 0.085905716 0.84300005 4.8917956e-39
-0.11225905 0.086415246 0.84800005 4.707403e-39
-0.11168763 0.087230489 0.85600007 4.6152059e-39
-0.11031429 0.087434292 0.85800004 4.4311748e-39
-0.10893334 0.087638095 0.86000001 4.2475024e-39
-0.10754476 0.087841913 0.86200005 4.1553082e-39
-0.10590286 0.087841913 0.86200005 4.0631139e-39
-0.10426096 0.087841913 0.86200005 3.970561e-39
-0.10345238 0.088555239 0.86900002 3.8787269e-39
-0.10179714 0.088555239 0.86900002 3.7865341e-39
-0.10037239 0.08875905 0.87100005 3.7865271e-39
-0.098713338 0.08875905 0.87100005 3.9698337e-39
-0.09727715 0.08896286 0.87300003 4.1535089e-39
-0.095833339 0.089166671 0.87500006 4.2457073e-39
-0.09448953 0.089472376 0.87800002 4.3379058e-39
-0.092817143 0.089472376 0.87800002 4.6141353e-39
-0.091352388 0.089676194 0.88000005 4.8907124e-39
-0.089676194 0.089676194 0.88000005 4.52229e-39
-0.088200003 0.089879997 0.88200003 4.1538676e-39
-0.086520001 0.089879997 0.88200003 3.876922e-39
-0.086860001 0.092020005 0.90300006 3.692172e-39
-0.085140005 0.092020005 0.90300006 3.416304e-39
-0.083604768 0.092223816 0.90500003 3.2311939e-39
-0.081880957 0.092223816 0.90500003 2.9553244e-39
-0.080422863 0.092529528 0.90800005 2.7716563e-39
-0.078693338 0.092529528 0.90800005 2.6791061e-39
-0.076963812 0.092529528 0.90800005 2.5869133e-39
-0.075234286 0.092529528 0.90800005 2.9553343e-39
-0.073504768 0.092529528 0.90800005 3.3244755e-39
-0.071775243 0.092529528 0.90800005 3.9691247e-39
-0.070045717 0.092529528 0.90800005 4.6162821e-39
-0.068316191 0.092529528 0.90800005 5.169093e-39
-0.066586666 0.092529528 0.90800005 5.7218996e-39
-0.064999998 0.092733338 0.91000003 5.5375111e-39
-0.065004766 0.09528096 0.93500006 5.4456756e-39
-0.063359044 0.095484763 0.93700004 5.2616459e-39
-0.061574284 0.095484763 0.93700004 5.1694531e-39
-0.059980955 0.095790483 0.94000006 5.3520493e-39
-0.05831429 0.095994294 0.94200003 5.5378769e-39
-0.056700002 0.096300006 0.94500005 6.4580311e-39
-0.055190481 0.096809521 0.95000005 7.3785469e-39
-0.053661905 0.097319052 0.95500004 7.9302857e-39
-0.052005716 0.097624764 0.95800006 8.4820036e-39
-0.050338093 0.097930476 0.96100003 7.9270333e-39
-0.04850762 0.097930476 0.96100003 7.4682188e-39
-0.046774287 0.098134294 0.96300006 7.5611347e-39
-0.045079999 0.098439999 0.96600002 7.745156e-39
-0.043374289 0.098745719 0.96900004 7.5611178e-39
-0.041528575 0.098745719 0.96900004 7.3774441e-39
-0.039682861 0.098745719 0.96900004 6.455499e-39
-0.037837144 0.098745719 0.96900004 5.4431561e-39
-0.03599143 0.098745719 0.96900004 4.4297385e-39
-0.034145713 0.098745719 0.96900004 3.4177628e-39
-0.032299999 0.098745719 0.96900004 3.8808947e-39
-0.03036 0.098439999 0.96600002 4.4329685e-39
-0.29304001 0.078480005 0.75600004 4.3375428e-39
-0.29044285 0.078168571 0.75300002 4.3375428e-39
-0.28785717 0.077857152 0.75000006 4.1542306e-39
-0.28528288 0.077545717 0.74700004 4.0620363e-39
-0.28386 0.077545717 0.74700004 4.1535131e-39
-0.28168097 0.077338107 0.74500006 4.2449885e-39
-0.28026193 0.077338107 0.74500006 4.1524341e-39
-0.27809429 0.077130474 0.74300003 4.0602399e-39
-0.27630666 0.077026673 0.74200004 3.9684044e-39
-0.27489337 0.077026673 0.74200004 3.8758472e-39
-0.27348003 0.077026673 0.74200004 3.6918133e-39
-0.27206668 0.077026673 0.74200004 3.5992589e-39
-0.26992381 0.076819047 0.74000001 3.3237524e-39
-0.26924002 0.077026673 0.74200004 3.139001e-39
-0.26710474 0.076819047 0.74000001 3.1386395e-39
-0.26569524 0.076819047 0.74000001 3.137922e-39
-0.26392856 0.076715238 0.73900002 3.2290387e-39
-0.26252094 0.076715238 0.73900002 3.3205154e-39
-0.2604067 0.076507628 0.73700005 3.3194392e-39
-0.25900286 0.076507628 0.73700005 3.3201581e-39
-0.25724956 0.076403812 0.73600006 3.2294002e-39
-0.25584763 0.076403812 0.73600006 3.2311995e-39
-0.25375429 0.076196194 0.73400003 3.4163096e-39
-0.2523562 0.076196194 0.73400003 3.6014211e-39
-0.2502743 0.075988576 0.73200005 3.8787269e-39
-0.24854001 0.075884759 0.73100001 4.1560298e-39
-0.24647143 0.075677149 0.72900003 4.2482283e-39
-0.24508286 0.075677149 0.72900003 4.4315377e-39
-0.24369429 0.075677149 0.72900003 4.2471465e-39
-0.24230571 0.075677149 0.72900003 4.1535159e-39
-0.24091715 0.075677149 0.72900003 3.9687659e-39
-0.23952857 0.075677149 0.72900003 3.876206e-39
-0.23879333 0.075884759 0.73100001 3.599975e-39
-0.23675144 0.075677149 0.72900003 3.3233881e-39
-0.23536287 0.075677149 0.72900003 3.1389968e-39
-0.23461619 0.075884759 0.73100001 3.0471627e-39
-0.2332238 0.075884759 0.73100001 2.8634946e-39
-0.23183143 0.075884759 0.73100001 2.7705815e-39
-0.23043904 0.075884759 0.73100001 2.7709402e-39
-0.22904667 0.075884759 0.73100001 2.7709416e-39
-0.22765428 0.075884759 0.73100001 2.8631358e-39
-0.22657146 0.075988576 0.73200005 2.9553329e-39
-0.22517715 0.075988576 0.73200005 3.1397255e-39
-0.22378287 0.075988576 0.73200005 3.3248342e-39
-0.22238858 0.075988576 0.73200005 3.6024973e-39
-0.22099431 0.075988576 0.73200005 3.9709155e-39
-0.21960001 0.075988576 0.73200005 4.1567389e-39
-0.21820572 0.075988576 0.73200005 4.340054e-39
-0.21681145 0.075988576 0.73200005 4.339698e-39
-0.21541716 0.075988576 0.73200005 4.337896e-39
-0.21402287 0.075988576 0.73200005 4.0609461e-39
-0.21320952 0.076196194 0.73400003 3.875836e-39
-0.21238859 0.076403812 0.73600006 3.5988918e-39
-0.21098667 0.076403812 0.73600006 3.3230266e-39
-0.21072382 0.076819047 0.74000001 3.0471613e-39
-0.20931429 0.076819047 0.74000001 2.8627673e-39
-0.20790476 0.076819047 0.74000001 2.5858217e-39
-0.20705333 0.077026673 0.74200004 2.4021535e-39
-0.20564 0.077026673 0.74200004 2.218844e-39
-0.20422669 0.077026673 0.74200004 2.1270071e-39
-0.20281334 0.077026673 0.74200004 2.4028709e-39
-0.20167144 0.077130474 0.74300003 2.7694983e-39
-0.20079526 0.077338107 0.74500006 3.0464411e-39
-0.19991145 0.077545717 0.74700004 3.3237496e-39
-0.19848858 0.077545717 0.74700004 3.693251e-39
-0.19706571 0.077545717 0.74700004 4.1538718e-39
-0.19590478 0.077649526 0.74800003 4.8910739e-39
-0.19448 0.077649526 0.74800003 5.716513e-39
-0.19305524 0.077649526 0.74800003 4.8896292e-39
-0.19214287 0.077857152 0.75000006 4.0613063e-39
-0.19198573 0.078376196 0.75500005 3.5095646e-39
-0.19054763 0.078376196 0.75500005 2.955309e-39
-0.19336763 0.080140956 0.77200001 2.4017723e-39
-0.19214574 0.080244765 0.77300006 1.9426032e-39
-0.19116667 0.080452383 0.77500004 2.3117487e-39
-0.18969047 0.080452383 0.77500004 2.7712905e-39
-0.18870001 0.08066 0.77700001 2.5879853e-39
-0.18770191 0.080867618 0.77900004 2.4021549e-39
-0.1862181 0.080867618 0.77900004 2.3106725e-39
-0.18497142 0.080971435 0.78000003 2.2188398e-39
-0.18395621 0.081179053 0.78200006 2.5865447e-39
-0.18246667 0.081179053 0.78200006 2.9542483e-39
-0.18144001 0.08138667 0.78400004 3.139357e-39
-0.18040572 0.081594288 0.78600001 3.3233923e-39
-0.17936382 0.081801906 0.78800005 3.5996233e-39
-0.17786287 0.081801906 0.78800005 3.8765661e-39
-0.1763619 0.081801906 0.78800005 4.2453444e-39
-0.17508286 0.081905723 0.78900003 4.6130479e-39
-0.17358001 0.081905723 0.78900003 4.4293797e-39
-0.17207715 0.081905723 0.78900003 4.2449829e-39
-0.17143907 0.082320958 0.79300004 3.8772751e-39
-0.17035714 0.082528569 0.79500002 3.6003337e-39
-0.16948001 0.082840003 0.79800004 3.3237496e-39
-0.1688019 0.083255246 0.80200005 3.1400772e-39
-0.1672743 0.083255246 0.80200005 3.2322701e-39
-0.16616 0.083462857 0.80400002 3.4163012e-39
-0.16462857 0.083462857 0.80400002 3.3248272e-39
-0.16350286 0.083670482 0.80600005 3.2333505e-39
-0.16196762 0.083670482 0.80600005 3.2337106e-39
-0.16083048 0.0838781 0.80800003 3.3251902e-39
-0.15968573 0.084085725 0.81000006 3.6014183e-39
-0.15814288 0.084085725 0.81000006 3.8765661e-39
-0.15698668 0.084293336 0.81200004 3.6928965e-39
-0.15544 0.084293336 0.81200004 3.601061e-39
-0.15427239 0.084500946 0.81400001 3.7850907e-39
-0.15272191 0.084500946 0.81400001 4.0605986e-39
-0.15117142 0.084500946 0.81400001 4.0609587e-39
-0.14962095 0.084500946 0.81400001 4.0602329e-39
-0.14825238 0.08460477 0.81500006 3.8761961e-39
-0.14669999 0.08460477 0.81500006 3.7843663e-39
-0.14550382 0.08481238 0.81700003 3.4173886e-39
-0.14394762 0.08481238 0.81700003 3.0500494e-39
-0.14274001 0.085020006 0.81900007 3.5095884e-39
-0.14152478 0.085227624 0.82100004 4.0620377e-39
-0.13996094 0.085227624 0.82100004 4.155311e-39
-0.1387343 0.085435241 0.82300001 4.3389806e-39
-0.13716668 0.085435241 0.82300001 4.2475038e-39
-0.13592857 0.085642859 0.82500005 4.2460647e-39
-0.13468286 0.085850477 0.82700002 4.1549424e-39
-0.13342954 0.086058103 0.82900006 4.0620321e-39
-0.13216858 0.086265713 0.83100003 3.9705582e-39
-0.13058572 0.086265713 0.83100003 3.9702008e-39
-0.12931333 0.086473338 0.83300006 3.8783668e-39
-0.12803334 0.086680956 0.83500004 3.7854509e-39
-0.12644285 0.086680956 0.83500004 3.6932524e-39
-0.12515143 0.086888574 0.83700001 3.6007023e-39
-0.12355714 0.086888574 0.83700001 3.6014211e-39
-0.12196286 0.086888574 0.83700001 3.6014239e-39
-0.1206562 0.087096192 0.83900005 3.7861753e-39
-0.1190581 0.087096192 0.83900005 4.062758e-39
-0.11746 0.087096192 0.83900005 4.3400596e-39
-0.11613809 0.08730381 0.84100002 4.6166451e-39
-0.11453619 0.08730381 0.84100002 4.7092008e-39
-0.11293428 0.08730381 0.84100002 4.8925089e-39
-0.11186191 0.087719053 0.84500003 4.7084749e-39
-0.11116572 0.088445716 0.85200006 4.6159206e-39
-0.11005715 0.088860959 0.85600007 4.4318895e-39
-0.10893334 0.089276187 0.86000001 4.2471423e-39
-0.10729524 0.089276187 0.86000001 4.1553068e-39
-0.10590286 0.089483812 0.86200005 4.1545879e-39
-0.10462382 0.089795247 0.86500007 3.9709169e-39
-0.10321429 0.090002865 0.86700004 3.8783654e-39
-0.10156287 0.090002865 0.86700004 3.7861725e-39
-0.10014191 0.090210475 0.86900002 3.6946916e-39
-0.098486669 0.090210475 0.86900002 3.8783597e-39
-0.097054288 0.0904181 0.87100005 4.153869e-39
-0.095614292 0.090625718 0.87300003 4.1538732e-39
-0.094166674 0.090833336 0.87500006 4.2457115e-39
-0.092500009 0.090833336 0.87500006 4.4311776e-39
-0.091144763 0.091144763 0.87800002 4.7066799e-39
-0.089676194 0.091352388 0.88000005 4.4300944e-39
-0.088000007 0.091352388 0.88000005 4.2453444e-39
-0.087206677 0.092286676 0.88900006 3.8765647e-39
-0.08618667 0.093013331 0.89600003 3.5081409e-39
-0.085140005 0.093740009 0.90300006 3.3244657e-39
-0.083604768 0.093947619 0.90500003 3.1389982e-39
-0.081880957 0.093947619 0.90500003 2.9556832e-39
-0.080157146 0.093947619 0.90500003 2.7716563e-39
-0.078693338 0.094259053 0.90800005 2.7716591e-39
-0.076963812 0.094259053 0.90800005 2.7716605e-39
-0.075234286 0.094259053 0.90800005 3.1390052e-39
-0.073504768 0.094259053 0.90800005 3.5081479e-39
-0.071775243 0.094259053 0.90800005 3.9694848e-39
-0.070045717 0.094259053 0.90800005 4.5240921e-39
-0.068090476 0.093947619 0.90500003 5.0776232e-39
-0.066586666 0.094259053 0.90800005 5.7215451e-39
-0.064857148 0.094259053 0.90800005 5.629348e-39
-0.065004766 0.09706191 0.93500006 5.5367951e-39
-0.063359044 0.097269528 0.93700004 5.3513304e-39
-0.061574284 0.097269528 0.93700004 5.169093e-39
-0.059789527 0.097269528 0.93700004 4.9850632e-39
-0.058190476 0.097580954 0.94000006 4.802474e-39
-0.056700002 0.098100007 0.94500005 5.9977774e-39
-0.055074289 0.098411433 0.94800007 7.1937941e-39
-0.053380955 0.098619051 0.95000005 8.0249813e-39
-0.051842857 0.099138096 0.95500004 8.9411768e-39
-0.050180953 0.09944953 0.95800006 8.2039761e-39
-0.04850762 0.09976095 0.96100003 7.5607703e-39
-0.046774287 0.099968575 0.96300006 7.6533247e-39
-0.045079999 0.10027999 0.96600002 7.7451546e-39
-0.043374289 0.10059143 0.96900004 7.6533135e-39
-0.041528575 0.10059143 0.96900004 7.561115e-39
-0.039682861 0.10059143 0.96900004 6.5498456e-39
-0.037837144 0.10059143 0.96900004 5.5349902e-39
-0.03599143 0.10059143 0.96900004 4.0620349e-39
-0.034145713 0.10059143 0.96900004 2.5919537e-39
-0.032299999 0.10059143 0.96900004 3.6050197e-39
-0.03036 0.10027999 0.96600002 4.6166338e-39
-0.028520001 0.10027999 0.96600002 4.2442598e-39
-0.29304001 0.079920009 0.75600004 4.336824e-39
-0.29044285 0.07960286 0.75300002 4.4290182e-39
-0.28785717 0.079285719 0.75000006 4.2453486e-39
-0.28528288 0.078968577 0.74700004 4.1535131e-39
-0.28310004 0.078757152 0.74500006 4.1535131e-39
-0.28092477 0.078545719 0.74300003 4.2453472e-39
-0.27950954 0.078545719 0.74300003 4.1524355e-39
-0.27772 0.078440003 0.74200004 4.0602427e-39
-0.27630666 0.078440003 0.74200004 3.9684086e-39
-0.27489337 0.078440003 0.74200004 3.8765689e-39
-0.27348003 0.078440003 0.74200004 3.6921762e-39
-0.27133334 0.078228571 0.74000001 3.5996219e-39
-0.26992381 0.078228571 0.74000001 3.5074262e-39
-0.26851428 0.078228571 0.74000001 3.4152292e-39
-0.26710474 0.078228571 0.74000001 3.3223147e-39
-0.26533619 0.078122854 0.73900002 3.1375647e-39
-0.26392856 0.078122854 0.73900002 3.1368444e-39
-0.26181051 0.077911437 0.73700005 3.2283198e-39
-0.2604067 0.077911437 0.73700005 2.9524532e-39
-0.25900286 0.077911437 0.73700005 2.676588e-39
-0.25724956 0.07780572 0.73600006 2.7698598e-39
-0.25584763 0.07780572 0.73600006 2.8631344e-39
-0.25375429 0.077594288 0.73400003 3.0471684e-39
-0.2523562 0.077594288 0.73400003 3.2312051e-39
-0.2502743 0.077382863 0.73200005 3.5092297e-39
-0.24854001 0.077277139 0.73100001 3.7894067e-39
-0.24647143 0.077065721 0.72900003 3.9727274e-39
-0.24508286 0.077065721 0.72900003 4.2482297e-39
-0.24369429 0.077065721 0.72900003 4.2475094e-39
-0.24197336 0.076960005 0.72800004 4.2467891e-39
-0.24091715 0.077065721 0.72900003 4.3379058e-39
-0.23952857 0.077065721 0.72900003 4.5208523e-39
-0.23814 0.077065721 0.72900003 4.0609503e-39
-0.23675144 0.077065721 0.72900003 3.6010526e-39
-0.23536287 0.077065721 0.72900003 3.5081381e-39
-0.23397429 0.077065721 0.72900003 3.4155851e-39
-0.2332238 0.077277139 0.73100001 3.2304792e-39
-0.23183143 0.077277139 0.73100001 3.0460894e-39
-0.23043904 0.077277139 0.73100001 3.0464467e-39
-0.22904667 0.077277139 0.73100001 3.0464467e-39
-0.22765428 0.077277139 0.73100001 2.9546112e-39
-0.2262619 0.077277139 0.73100001 2.8627757e-39
-0.22517715 0.077382863 0.73200005 2.5879867e-39
-0.22378287 0.077382863 0.73200005 2.3139207e-39
-0.22238858 0.077382863 0.73200005 2.7738227e-39
-0.22099431 0.077382863 0.73200005 3.3259132e-39
-0.21960001 0.077382863 0.73200005 3.6950517e-39
-0.21790762 0.077277139 0.73100001 4.0645517e-39
-0.21681145 0.077382863 0.73200005 4.2478709e-39
-0.21541716 0.077382863 0.73200005 4.4315307e-39
-0.21402287 0.077382863 0.73200005 4.6144744e-39
-0.21262857 0.077382863 0.73200005 4.7977853e-39
-0.21181144 0.077594288 0.73400003 4.3375302e-39
-0.21041334 0.077594288 0.73400003 3.8772737e-39
-0.20901524 0.077594288 0.73400003 3.5999722e-39
-0.20903143 0.078122854 0.73900002 3.3230266e-39
-0.20762381 0.078122854 0.73900002 3.0467998e-39
-0.20649524 0.078228571 0.74000001 2.6790977e-39
-0.20508571 0.078228571 0.74000001 2.5865433e-39
-0.20367619 0.078228571 0.74000001 2.4025122e-39
-0.20281334 0.078440003 0.74200004 2.5861818e-39
-0.20167144 0.078545719 0.74300003 2.7698528e-39
-0.20079526 0.078757152 0.74500006 2.8620484e-39
-0.19991145 0.078968577 0.74700004 3.0471627e-39
-0.19848858 0.078968577 0.74700004 3.3244727e-39
-0.19706571 0.078968577 0.74700004 3.6932566e-39
-0.19590478 0.079074286 0.74800003 4.2457115e-39
-0.19448 0.079074286 0.74800003 4.8899921e-39
-0.19305524 0.079074286 0.74800003 4.4304545e-39
-0.19214287 0.079285719 0.75000006 4.0623853e-39
-0.19122286 0.079497144 0.75200003 3.6943174e-39
-0.18979049 0.079497144 0.75200003 3.323723e-39
-0.1936181 0.081717148 0.77300006 2.3092053e-39
-0.19214574 0.081717148 0.77300006 1.2979555e-39
-0.19116667 0.081928574 0.77500004 1.7589435e-39
-0.18969047 0.081928574 0.77500004 2.219207e-39
-0.1882143 0.081928574 0.77500004 2.3121285e-39
-0.18770191 0.082351431 0.77900004 2.4936358e-39
-0.1862181 0.082351431 0.77900004 2.309955e-39
-0.18497142 0.08245714 0.78000003 2.126647e-39
-0.18395621 0.08266858 0.78200006 2.4025178e-39
-0.18246667 0.08266858 0.78200006 2.678383e-39
-0.18097715 0.08266858 0.78200006 2.8634904e-39
-0.17994668 0.082879998 0.78400004 3.0475285e-39
-0.17890857 0.08309143 0.78600001 3.4152376e-39
-0.17741142 0.08309143 0.78600001 3.6925364e-39
-0.1763619 0.083302855 0.78800005 4.0613133e-39
-0.17486095 0.083302855 0.78800005 4.3375428e-39
-0.17336002 0.083302855 0.78800005 4.2457129e-39
-0.17207715 0.083408572 0.78900003 4.0609559e-39
-0.17143907 0.083831429 0.79300004 3.7850823e-39
-0.17035714 0.084042862 0.79500002 3.5999736e-39
-0.16948001 0.084360003 0.79800004 3.3237468e-39
-0.16838096 0.084571429 0.80000001 3.0475215e-39
-0.1672743 0.084782861 0.80200005 3.0475201e-39
-0.16616 0.084994286 0.80400002 3.1393584e-39
-0.16462857 0.084994286 0.80400002 3.1400786e-39
-0.16309714 0.084994286 0.80400002 3.1407961e-39
-0.16196762 0.085205719 0.80600005 3.232633e-39
-0.16043238 0.085205719 0.80600005 3.32483e-39
-0.15929143 0.085417144 0.80800003 3.5085052e-39
-0.15814288 0.085628577 0.81000006 3.692535e-39
-0.15698668 0.085840002 0.81200004 3.6925364e-39
-0.15544 0.085840002 0.81200004 3.6928951e-39
-0.15389334 0.085840002 0.81200004 3.8765675e-39
-0.15234667 0.085840002 0.81200004 3.9684044e-39
-0.15117142 0.086051434 0.81400001 3.9691247e-39
-0.14962095 0.086051434 0.81400001 3.9687547e-39
-0.14807047 0.086051434 0.81400001 3.8761919e-39
-0.14669999 0.086157143 0.81500006 3.7843634e-39
-0.14514764 0.086157143 0.81500006 3.6003407e-39
-0.14394762 0.086368576 0.81700003 3.4166725e-39
-0.14239143 0.086368576 0.81700003 3.6010652e-39
-0.14118001 0.086580001 0.81900007 3.878364e-39
-0.13996094 0.086791433 0.82100004 4.0631111e-39
-0.13839714 0.086791433 0.82100004 4.3389792e-39
-0.13683334 0.086791433 0.82100004 4.338982e-39
-0.13559905 0.087002859 0.82300001 4.4297385e-39
-0.13435715 0.087214291 0.82500005 4.2457073e-39
-0.13310762 0.087425716 0.82700002 4.1538718e-39
-0.13185048 0.087637149 0.82900006 4.0620363e-39
-0.13058572 0.087848574 0.83100003 3.9702037e-39
-0.12900285 0.087848574 0.83100003 3.8780122e-39
-0.12772667 0.088060006 0.83300006 3.8780066e-39
-0.12644285 0.088271432 0.83500004 3.6928951e-39
-0.12485238 0.088271432 0.83500004 3.5999848e-39
-0.12326191 0.088271432 0.83500004 3.6007037e-39
-0.12196286 0.088482857 0.83700001 3.6932608e-39
-0.12036857 0.088482857 0.83700001 3.785818e-39
-0.11877429 0.088482857 0.83700001 3.9709225e-39
-0.11746 0.088694289 0.83900005 4.2475052e-39
-0.11586191 0.088694289 0.83900005 4.6166408e-39
-0.11426381 0.088694289 0.83900005 4.7091952e-39
-0.11293428 0.088905722 0.84100002 4.8932221e-39
-0.11159715 0.089117147 0.84300005 4.8006664e-39
-0.11064382 0.089645721 0.84800005 4.7084707e-39
-0.10954286 0.090068579 0.85200006 4.5233634e-39
-0.10868 0.090702862 0.85800004 4.338975e-39
-0.10729524 0.090914287 0.86000001 4.2467821e-39
-0.10565715 0.090914287 0.86000001 4.1542278e-39
-0.10426096 0.091125719 0.86200005 4.0623923e-39
-0.1029762 0.091442861 0.86500007 3.970198e-39
-0.10156287 0.091654293 0.86700004 3.878364e-39
-0.099911429 0.091654293 0.86700004 3.8783625e-39
-0.098486669 0.091865711 0.86900002 3.9694806e-39
-0.097054288 0.092077151 0.87100005 4.0606014e-39
-0.095395245 0.092077151 0.87100005 4.1535173e-39
-0.094166674 0.092500009 0.87500006 4.3375456e-39
-0.092500009 0.092500009 0.87500006 4.7056051e-39
-0.091144763 0.092817143 0.87800002 5.0736617e-39
-0.089472376 0.092817143 0.87800002 4.5215698e-39
-0.088000007 0.093028575 0.88000005 4.0613147e-39
-0.086520001 0.09324 0.88200003 3.7847306e-39
-0.08484 0.09324 0.88200003 3.5081409e-39
-0.084668577 0.094931439 0.89800006 3.3241042e-39
-0.083420001 0.095460005 0.90300006 3.0471613e-39
-0.081700005 0.095460005 0.90300006 2.8638491e-39
-0.080157146 0.09567143 0.90500003 2.7720164e-39
-0.078433335 0.09567143 0.90500003 2.7716605e-39
-0.076963812 0.095988572 0.90800005 2.7716619e-39
-0.075234286 0.095988572 0.90800005 3.1397227e-39
-0.073504768 0.095988572 0.90800005 3.5081479e-39
-0.071775243 0.095988572 0.90800005 3.9687687e-39
-0.069814287 0.09567143 0.90500003 4.5237376e-39
-0.068090476 0.09567143 0.90500003 5.0772715e-39
-0.066366673 0.09567143 0.90500003 5.7215493e-39
-0.064857148 0.095988572 0.90800005 5.6286334e-39
-0.065004766 0.098842859 0.93500006 5.536079e-39
-0.063359044 0.099054292 0.93700004 5.352408e-39
-0.061574284 0.099054292 0.93700004 5.2605697e-39
-0.059789527 0.099054292 0.93700004 5.0772547e-39
-0.058004763 0.099054292 0.93700004 4.9857849e-39
-0.05652 0.099582858 0.94200003 5.9048657e-39
-0.055074289 0.10021715 0.94800007 6.8253717e-39
-0.053380955 0.10042857 0.95000005 7.4725236e-39
-0.051842857 0.10095715 0.95500004 8.2064887e-39
-0.050180953 0.10127429 0.95800006 7.9291885e-39
-0.04835619 0.10127429 0.95800006 7.5604102e-39
-0.046677142 0.10159143 0.96100003 7.8373516e-39
-0.044940002 0.10180286 0.96300006 8.113214e-39
-0.04324 0.10212 0.96600002 7.7458692e-39
-0.0414 0.10212 0.96600002 7.3788804e-39
-0.039560001 0.10212 0.96600002 6.3650984e-39
-0.037837144 0.10243715 0.96900004 5.3513192e-39
-0.03599143 0.10243715 0.96900004 4.4290168e-39
-0.03404 0.10212 0.96600002 3.5113793e-39
-0.032200001 0.10212 0.96600002 4.5233648e-39
-0.03036 0.10212 0.96600002 5.5353433e-39
-0.028520001 0.10212 0.96600002 4.7981426e-39
-0.29304001 0.081359997 0.75600004 4.4279378e-39
-0.29005715 0.080929525 0.75200003 4.6119703e-39
-0.28708953 0.080499046 0.74800003 4.4290182e-39
-0.28528288 0.080391429 0.74700004 4.2449899e-39
-0.28310004 0.080176197 0.74500006 4.2449913e-39
-0.28092477 0.07996095 0.74300003 4.2453486e-39
-0.27913335 0.079853341 0.74200004 4.1527942e-39
-0.27772 0.079853341 0.74200004 4.0606014e-39
-0.2755619 0.079638094 0.74000001 3.9687659e-39
-0.2741524 0.079638094 0.74000001 3.8765689e-39
-0.27274287 0.079638094 0.74000001 3.6925364e-39
-0.27133334 0.079638094 0.74000001 3.599982e-39
-0.26955906 0.079530478 0.73900002 3.691456e-39
-0.26815143 0.079530478 0.73900002 3.7822139e-39
-0.26674381 0.079530478 0.73900002 3.5059871e-39
-0.26533619 0.079530478 0.73900002 3.230475e-39
-0.26392856 0.079530478 0.73900002 3.1386353e-39
-0.26181051 0.079315245 0.73700005 3.1372004e-39
-0.2604067 0.079315245 0.73700005 2.5854699e-39
-0.25900286 0.079315245 0.73700005 2.0337381e-39
-0.25724956 0.079207622 0.73600006 2.2188426e-39
-0.25584763 0.079207622 0.73600006 2.4947092e-39
-0.25375429 0.078992382 0.73400003 2.6787418e-39
-0.2523562 0.078992382 0.73400003 2.9549713e-39
-0.2502743 0.078777142 0.73200005 3.231561e-39
-0.24854001 0.078669526 0.73100001 3.5088696e-39
-0.24647143 0.078454293 0.72900003 3.7865383e-39
-0.24508286 0.078454293 0.72900003 4.0631181e-39
-0.24369429 0.078454293 0.72900003 4.2478639e-39
-0.24197336 0.07834667 0.72800004 4.431179e-39
-0.24058668 0.07834667 0.72800004 4.7985238e-39
-0.23952857 0.078454293 0.72900003 5.1647826e-39
-0.23814 0.078454293 0.72900003 4.5212082e-39
-0.23642668 0.07834667 0.72800004 3.9691176e-39
-0.23536287 0.078454293 0.72900003 3.8762031e-39
-0.23397429 0.078454293 0.72900003 3.7832887e-39
-0.23258573 0.078454293 0.72900003 3.5059871e-39
-0.23119715 0.078454293 0.72900003 3.321956e-39
-0.23043904 0.078669526 0.73100001 3.3219546e-39
-0.22842 0.078454293 0.72900003 3.3223119e-39
-0.22765428 0.078669526 0.73100001 3.0471627e-39
-0.2262619 0.078669526 0.73100001 2.7709374e-39
-0.22486953 0.078669526 0.73100001 2.0362534e-39
-0.22378287 0.078777142 0.73200005 1.3015709e-39
-0.22208476 0.078669526 0.73100001 2.036615e-39
-0.22069238 0.078669526 0.73100001 2.7727395e-39
-0.2193 0.078669526 0.73100001 3.3255517e-39
-0.21790762 0.078669526 0.73100001 3.8780052e-39
-0.21651524 0.078669526 0.73100001 4.1553124e-39
-0.21512285 0.078669526 0.73100001 4.5240823e-39
-0.21402287 0.078777142 0.73200005 5.0765246e-39
-0.21262857 0.078777142 0.73200005 5.7161487e-39
-0.2112343 0.078777142 0.73200005 5.0750981e-39
-0.21041334 0.078992382 0.73400003 4.4293741e-39
-0.20958479 0.079207622 0.73600006 4.1535033e-39
-0.20846573 0.079315245 0.73700005 3.8765577e-39
-0.20762381 0.079530478 0.73900002 3.4163012e-39
-0.20649524 0.079638094 0.74000001 3.0475201e-39
-0.20508571 0.079638094 0.74000001 2.8627687e-39
-0.20367619 0.079638094 0.74000001 2.7702143e-39
-0.20226666 0.079638094 0.74000001 2.7694941e-39
-0.20140001 0.079853341 0.74200004 2.7694941e-39
-0.20079526 0.080176197 0.74500006 2.7698528e-39
-0.19937621 0.080176197 0.74500006 2.7705773e-39
-0.19848858 0.080391429 0.74700004 3.0475257e-39
-0.19706571 0.080391429 0.74700004 3.3244741e-39
-0.19564286 0.080391429 0.74700004 3.6936182e-39
-0.19448 0.080499046 0.74800003 4.0634713e-39
-0.19305524 0.080499046 0.74800003 4.0634713e-39
-0.19163048 0.080499046 0.74800003 4.0631111e-39
-0.19122286 0.080929525 0.75200003 3.8790814e-39
-0.18979049 0.080929525 0.75200003 3.6935971e-39
-0.18835811 0.080929525 0.75200003 2.1248421e-39
-0.19214574 0.083189532 0.77300006 6.5547557e-40
-0.19067335 0.083189532 0.77300006 1.2068501e-39
-0.18969047 0.083404765 0.77500004 1.7589463e-39
-0.1882143 0.083404765 0.77500004 2.1280875e-39
-0.18722001 0.083620004 0.77700001 2.5843895e-39
-0.18645716 0.08394286 0.78000003 2.3074411e-39
-0.18497142 0.08394286 0.78000003 2.03445e-39
-0.18395621 0.0841581 0.78200006 2.2181265e-39
-0.18246667 0.0841581 0.78200006 2.402515e-39
-0.18097715 0.0841581 0.78200006 2.5879811e-39
-0.17994668 0.084373333 0.78400004 2.8634946e-39
-0.17845334 0.084373333 0.78400004 3.2312023e-39
-0.17741142 0.084588572 0.78600001 3.5999806e-39
-0.17591429 0.084588572 0.78600001 3.8772807e-39
-0.17441714 0.084588572 0.78600001 4.1535089e-39
-0.17336002 0.084803812 0.78800005 4.0631139e-39
-0.17185906 0.084803812 0.78800005 3.969119e-39
-0.17100666 0.085126668 0.79100001 3.7850823e-39
-0.16992857 0.085341908 0.79300004 3.5999736e-39
-0.16926764 0.085772388 0.79700005 3.2319127e-39
-0.16796 0.085880004 0.79800004 2.9553273e-39
-0.16685714 0.086095236 0.80000001 2.8634904e-39
-0.16616 0.086525716 0.80400002 2.8638505e-39
-0.16462857 0.086525716 0.80400002 2.9556874e-39
-0.16309714 0.086525716 0.80400002 3.1400772e-39
-0.16156571 0.086525716 0.80400002 3.2322715e-39
-0.16043238 0.086740956 0.80600005 3.4159467e-39
-0.15929143 0.086956188 0.80800003 3.5081437e-39
-0.15775238 0.086956188 0.80800003 3.6003379e-39
-0.1566 0.087171435 0.81000006 3.6925322e-39
-0.15544 0.087386668 0.81200004 3.876206e-39
-0.15389334 0.087386668 0.81200004 3.8762074e-39
-0.15234667 0.087386668 0.81200004 3.9684016e-39
-0.15117142 0.087601908 0.81400001 3.9691204e-39
-0.14962095 0.087601908 0.81400001 3.9687561e-39
-0.14807047 0.087601908 0.81400001 3.8761975e-39
-0.14652 0.087601908 0.81400001 3.7840047e-39
-0.14514764 0.087709531 0.81500006 3.7836474e-39
-0.14359525 0.087709531 0.81500006 3.7836516e-39
-0.14239143 0.087924771 0.81700003 3.784732e-39
-0.14118001 0.088140003 0.81900007 3.7858096e-39
-0.13962001 0.088140003 0.81900007 4.0627524e-39
-0.13839714 0.088355243 0.82100004 4.3382603e-39
-0.13683334 0.088355243 0.82100004 4.4304559e-39
-0.13526952 0.088355243 0.82100004 4.6130493e-39
-0.13403143 0.088570476 0.82300001 4.4293783e-39
-0.13310762 0.089000955 0.82700002 4.3375428e-39
-0.13185048 0.089216195 0.82900006 4.1535117e-39
-0.13027143 0.089216195 0.82900006 3.9698407e-39
-0.12900285 0.089431427 0.83100003 3.9709183e-39
-0.12772667 0.089646667 0.83300006 4.0616748e-39
-0.12644285 0.089861907 0.83500004 3.784732e-39
-0.12485238 0.089861907 0.83500004 3.5999834e-39
-0.12326191 0.089861907 0.83500004 3.6918189e-39
-0.12167143 0.089861907 0.83500004 3.7843747e-39
-0.12036857 0.090077139 0.83700001 3.7854551e-39
-0.11877429 0.090077139 0.83700001 3.8783668e-39
-0.11718 0.090077139 0.83700001 4.2471451e-39
-0.11586191 0.090292387 0.83900005 4.7081176e-39
-0.11426381 0.090292387 0.83900005 4.8013894e-39
-0.11293428 0.090507619 0.84100002 4.8928634e-39
-0.11159715 0.090722859 0.84300005 4.8010265e-39
-0.11064382 0.091260955 0.84800005 4.8003076e-39
-0.10928571 0.091476195 0.85000002 4.6152003e-39
-0.10817333 0.091906674 0.85400003 4.5219285e-39
-0.10704572 0.092337146 0.85800004 4.3382575e-39
-0.10565715 0.092552379 0.86000001 4.1542264e-39
-0.10426096 0.092767626 0.86200005 4.1542264e-39
-0.1029762 0.093090482 0.86500007 4.1535089e-39
-0.10132858 0.093090482 0.86500007 4.0613147e-39
-0.099911429 0.093305722 0.86700004 4.0609559e-39
-0.09826 0.093305722 0.86700004 4.0605986e-39
-0.096831433 0.093520947 0.86900002 4.0606014e-39
-0.095395245 0.093736194 0.87100005 4.2453528e-39
-0.093951426 0.093951426 0.87300003 4.4293811e-39
-0.092817143 0.09448953 0.87800002 4.9807514e-39
-0.091144763 0.09448953 0.87800002 5.5314029e-39
-0.089472376 0.09448953 0.87800002 4.704882e-39
-0.087800004 0.09448953 0.87800002 3.8772835e-39
-0.086323813 0.094704762 0.88000005 3.6932524e-39
-0.084647626 0.094704762 0.88000005 3.5996177e-39
-0.084480003 0.096426666 0.89600003 3.3237468e-39
-0.083235241 0.096964762 0.90100002 3.0475201e-39
-0.081700005 0.097180009 0.90300006 2.8638449e-39
-0.079980001 0.097180009 0.90300006 2.7716549e-39
-0.078433335 0.097395241 0.90500003 2.7713017e-39
-0.076709531 0.097395241 0.90500003 2.863496e-39
-0.074985713 0.097395241 0.90500003 3.2322729e-39
-0.073261909 0.097395241 0.90500003 3.599982e-39
-0.071538098 0.097395241 0.90500003 4.0602427e-39
-0.069814287 0.097395241 0.90500003 4.5230145e-39
-0.067940004 0.097180009 0.90300006 5.0769043e-39
-0.066220008 0.097180009 0.90300006 5.7197514e-39
-0.064857148 0.097718097 0.90800005 5.6279145e-39
-0.063127622 0.097718097 0.90800005 5.5360776e-39
-0.063223809 0.10062382 0.93500006 5.4442407e-39
-0.061442863 0.10062382 0.93500006 5.4442393e-39
-0.05966191 0.10062382 0.93500006 5.2612858e-39
-0.057880957 0.10062382 0.93500006 5.1694531e-39
-0.056220002 0.10083905 0.93700004 5.811947e-39
-0.054725714 0.10137715 0.94200003 6.455513e-39
-0.053268574 0.10202286 0.94800007 7.0119069e-39
-0.051734287 0.10256096 0.95300007 7.5632786e-39
-0.050023809 0.1027762 0.95500004 7.5625612e-39
-0.04835619 0.10309905 0.95800006 7.6543967e-39
-0.046531431 0.10309905 0.95800006 8.1135728e-39
-0.044846665 0.1034219 0.96100003 8.5731048e-39
-0.043105714 0.10363715 0.96300006 7.8391341e-39
-0.0414 0.10396 0.96600002 7.1944877e-39
-0.039560001 0.10396 0.96600002 6.1807071e-39
-0.037837144 0.10428286 0.96900004 5.2566125e-39
-0.03599143 0.10428286 0.96900004 4.8878355e-39
-0.03404 0.10396 0.96600002 4.521211e-39
-0.032200001 0.10396 0.96600002 5.5335553e-39
-0.03036 0.10396 0.96600002 6.5458995e-39
-0.028520001 0.10396 0.96600002 5.4442337e-39
-0.02668 0.10396 0.96600002 4.4275735e-39
-0.2926524 0.082690477 0.75500005 4.3360995e-39
-0.29044285 0.08247143 0.75300002 4.3357436e-39
-0.28708953 0.081923813 0.74800003 4.2453472e-39
-0.28528288 0.081814289 0.74700004 4.1524369e-39
-0.28386 0.081814289 0.74700004 4.2446339e-39
-0.28092477 0.081376195 0.74300003 4.24535e-39
-0.27913335 0.081266664 0.74200004 4.1531544e-39
-0.27697143 0.081047617 0.74000001 4.1531544e-39
-0.2755619 0.081047617 0.74000001 3.9687659e-39
-0.2741524 0.081047617 0.74000001 3.7850935e-39
-0.27274287 0.081047617 0.74000001 3.6928979e-39
-0.27096668 0.080938093 0.73900002 3.6925364e-39
-0.26882955 0.080719054 0.73700005 3.6914574e-39
-0.26815143 0.080938093 0.73900002 3.6903798e-39
-0.26674381 0.080938093 0.73900002 3.5067074e-39
-0.26461813 0.080719054 0.73700005 3.3233867e-39
-0.26321432 0.080719054 0.73700005 3.1386325e-39
-0.26181051 0.080719054 0.73700005 3.0464397e-39
-0.2604067 0.080719054 0.73700005 2.6780243e-39
-0.25865144 0.08060953 0.73600006 2.4010787e-39
-0.25724956 0.08060953 0.73600006 2.4014332e-39
-0.25584763 0.08060953 0.73600006 2.4936274e-39
-0.25375429 0.080390476 0.73400003 2.5858217e-39
-0.2523562 0.080390476 0.73400003 2.7702157e-39
-0.2502743 0.080171436 0.73200005 2.9546098e-39
-0.24888 0.080171436 0.73200005 3.1390081e-39
-0.24714762 0.080061905 0.73100001 3.3241252e-39
-0.24508286 0.079842865 0.72900003 3.6014239e-39
-0.24369429 0.079842865 0.72900003 3.7865299e-39
-0.24197336 0.079733342 0.72800004 3.9720029e-39
-0.24058668 0.079733342 0.72800004 4.4311888e-39
-0.23920001 0.079733342 0.72800004 4.7992398e-39
-0.23781334 0.079733342 0.72800004 4.52229e-39
-0.23642668 0.079733342 0.72800004 4.2453472e-39
-0.23504002 0.079733342 0.72800004 4.1527928e-39
-0.23365334 0.079733342 0.72800004 3.9673226e-39
-0.23258573 0.079842865 0.72900003 3.7832887e-39
-0.23119715 0.079842865 0.72900003 3.5077808e-39
-0.22980858 0.079842865 0.72900003 3.4152264e-39
-0.22842 0.079842865 0.72900003 3.3226706e-39
-0.22765428 0.080061905 0.73100001 3.1386381e-39
-0.2262619 0.080061905 0.73100001 2.9549657e-39
-0.22486953 0.080061905 0.73100001 2.4032353e-39
-0.22347714 0.080061905 0.73100001 1.8518594e-39
-0.22208476 0.080061905 0.73100001 2.2195559e-39
-0.22069238 0.080061905 0.73100001 2.6794592e-39
-0.2193 0.080061905 0.73100001 3.0475285e-39
-0.21731144 0.079842865 0.72900003 3.4159523e-39
-0.21651524 0.080061905 0.73100001 3.692542e-39
-0.21512285 0.080061905 0.73100001 3.9691232e-39
-0.21373048 0.080061905 0.73100001 4.33754e-39
-0.21233809 0.080061905 0.73100001 4.7978021e-39
-0.2112343 0.080171436 0.73200005 4.6141409e-39
-0.20984001 0.080171436 0.73200005 4.4308203e-39
-0.20958479 0.08060953 0.73600006 4.5219299e-39
-0.20818287 0.08060953 0.73600006 4.7052379e-39
-0.20706192 0.080719054 0.73700005 4.1524271e-39
-0.2062162 0.080938093 0.73900002 3.5996135e-39
-0.20480858 0.080938093 0.73900002 3.4148607e-39
-0.20340095 0.080938093 0.73900002 3.2297519e-39
-0.20226666 0.081047617 0.74000001 3.0453607e-39
-0.20140001 0.081266664 0.74200004 2.8613296e-39
-0.2002562 0.081376195 0.74300003 2.6776572e-39
-0.19991145 0.081814289 0.74700004 2.4939904e-39
-0.19848858 0.081814289 0.74700004 2.6783844e-39
-0.19706571 0.081814289 0.74700004 2.86314e-39
-0.19590478 0.081923813 0.74800003 3.1404486e-39
-0.19448 0.081923813 0.74800003 3.5128142e-39
-0.19305524 0.081923813 0.74800003 3.7879648e-39
-0.19163048 0.081923813 0.74800003 4.0634783e-39
-0.1907143 0.082142867 0.75000006 4.1553222e-39
-0.18979049 0.082361907 0.75200003 4.3389778e-39
-0.18860857 0.08247143 0.75300002 2.9535392e-39
-0.18717429 0.08247143 0.75300002 1.6656772e-39
-0.18574001 0.08247143 0.75300002 1.6660248e-39
-0.18430573 0.08247143 0.75300002 1.6663863e-39
-0.1882143 0.084880956 0.77500004 2.3085201e-39
-0.18722001 0.085100003 0.77700001 2.951007e-39
-0.18574001 0.085100003 0.77700001 2.490752e-39
-0.18497142 0.085428573 0.78000003 2.1259253e-39
-0.18348572 0.085428573 0.78000003 2.3099592e-39
-0.18246667 0.085647628 0.78200006 2.4943477e-39
-0.18097715 0.085647628 0.78200006 2.6787376e-39
-0.17994668 0.085866667 0.78400004 2.7712961e-39
-0.17845334 0.085866667 0.78400004 3.2311981e-39
-0.17741142 0.086085714 0.78600001 3.6914532e-39
-0.17591429 0.086085714 0.78600001 3.8769206e-39
-0.17441714 0.086085714 0.78600001 4.1535061e-39
-0.17336002 0.086304761 0.78800005 4.0613161e-39
-0.17185906 0.086304761 0.78800005 4.0609531e-39
-0.17100666 0.08663334 0.79100001 3.784725e-39
-0.17035714 0.087071434 0.79500002 3.599975e-39
-0.16926764 0.087290481 0.79700005 3.3230322e-39
-0.16796 0.087400004 0.79800004 3.0471641e-39
-0.16685714 0.087619044 0.80000001 2.9553258e-39
-0.16616 0.088057138 0.80400002 2.8638491e-39
-0.16462857 0.088057138 0.80400002 2.955686e-39
-0.16309714 0.088057138 0.80400002 3.0478802e-39
-0.16156571 0.088057138 0.80400002 3.2319113e-39
-0.16043238 0.088276193 0.80600005 3.4159439e-39
-0.15929143 0.08849524 0.80800003 3.5077836e-39
-0.15775238 0.08849524 0.80800003 3.5996177e-39
-0.15621333 0.08849524 0.80800003 3.6921706e-39
-0.15505715 0.088714294 0.81000006 3.7843677e-39
-0.15389334 0.088933334 0.81200004 3.8762074e-39
-0.15234667 0.088933334 0.81200004 3.8765647e-39
-0.1508 0.088933334 0.81200004 3.876922e-39
-0.14925334 0.088933334 0.81200004 3.8772793e-39
-0.14807047 0.089152381 0.81400001 3.6925322e-39
-0.14652 0.089152381 0.81400001 3.5081395e-39
-0.14496952 0.089152381 0.81400001 3.5081367e-39
-0.14359525 0.089261912 0.81500006 3.5999764e-39
-0.14239143 0.089480951 0.81700003 3.6921762e-39
-0.14083524 0.089480951 0.81700003 3.7850907e-39
-0.13962001 0.089700006 0.81900007 3.9701994e-39
-0.13806 0.089700006 0.81900007 4.1542292e-39
-0.13683334 0.089919046 0.82100004 4.5222886e-39
-0.13526952 0.089919046 0.82100004 4.9800326e-39
-0.13403143 0.0901381 0.82300001 4.612692e-39
-0.13278572 0.090357147 0.82500005 4.2457073e-39
