# .PCD v0.7 - Point Cloud Data file format
VERSION 0.7
FIELDS x y z rgb
SIZE 4 4 4 4
TYPE F F F F
COUNT 1 1 1 1
WIDTH 998
HEIGHT 1
VIEWPOINT 0 0 0 1 0 0 0
POINTS 998
DATA ascii
-0.22663717 0.088780008 0.57900006 7.3829652e-40
-0.22514477 0.088626668 0.57800001 6.4646102e-40
-0.22404382 0.088626668 0.57800001 5.5462552e-40
-0.22294284 0.088626668 0.57800001 5.5462412e-40
-0.2218419 0.088626668 0.57800001 5.5462412e-40
-0.22074094 0.088626668 0.57800001 5.5462412e-40
-0.21964 0.088626668 0.57800001 5.5462552e-40
-0.21816097 0.088473335 0.57700002 5.5426539e-40
-0.21706191 0.088473335 0.57700002 4.6242849e-40
-0.21596286 0.088473335 0.57700002 3.705916e-40
-0.21486382 0.088473335 0.57700002 3.7059019e-40
-0.2133943 0.088320009 0.57600003 4.6242289e-40
-0.21229716 0.088320009 0.57600003 4.6242149e-40
-0.21083334 0.088166669 0.57500005 4.6242149e-40
-0.20973812 0.088166669 0.57500005 3.7022866e-40
-0.20864287 0.088166669 0.57500005 3.7022726e-40
-0.20754763 0.088166669 0.57500005 3.7022726e-40
-0.20609333 0.088013336 0.574 3.7022586e-40
-0.205 0.088013336 0.574 2.7874769e-40
-0.20390667 0.088013336 0.574 2.7803163e-40
-0.20281333 0.088013336 0.574 2.776729e-40
-0.20172 0.088013336 0.574 2.776729e-40
-0.20062667 0.088013336 0.574 2.7731416e-40
-0.19953333 0.088013336 0.574 2.7767149e-40
-0.19878574 0.088166669 0.57500005 2.7802883e-40
-0.19769049 0.088166669 0.57500005 2.7802883e-40
-0.19659525 0.088166669 0.57500005 2.7803023e-40
-0.19550002 0.088166669 0.57500005 2.7767149e-40
-0.19440478 0.088166669 0.57500005 3.6986712e-40
-0.19330955 0.088166669 0.57500005 4.6134249e-40
-0.19188 0.088013336 0.574 3.6878672e-40
-0.19078667 0.088013336 0.574 2.7767149e-40
-0.18936287 0.087860003 0.57300001 2.7803303e-40
-0.18827142 0.087860003 0.57300001 3.7022866e-40
-0.18652667 0.087553337 0.57100004 3.7058879e-40
-0.18543907 0.087553337 0.57100004 4.6242429e-40
-0.18435144 0.087553337 0.57100004 4.6278442e-40
-0.18294287 0.087400012 0.57000005 4.6278582e-40
-0.18185715 0.087400012 0.57000005 4.6278863e-40
-0.18077144 0.087400012 0.57000005 5.5462132e-40
-0.17937048 0.087246664 0.56900001 5.5461992e-40
-0.17797334 0.087093338 0.56800002 6.4645822e-40
-0.17658001 0.086939998 0.56700003 6.4717989e-40
-0.17550001 0.086939998 0.56700003 6.4717849e-40
-0.17411239 0.086786672 0.56600004 7.3937271e-40
-0.17272857 0.086633332 0.565 8.3120821e-40
-0.17165238 0.086633332 0.565 7.3901258e-40
-0.17027429 0.086479999 0.56400001 6.4717708e-40
-0.1692 0.086479999 0.56400001 6.4681695e-40
-0.16782762 0.086326674 0.56300002 6.4681835e-40
-0.16675524 0.086326674 0.56300002 7.3901398e-40
-0.16568287 0.086326674 0.56300002 8.3084948e-40
-0.1643181 0.086173333 0.56200004 8.3156694e-40
-0.16324762 0.086173333 0.56200004 8.3121382e-40
-0.16188858 0.086020008 0.56100005 8.3121942e-40
-0.16053332 0.085866667 0.56 8.3121942e-40
-0.15918191 0.085713334 0.55900002 8.3121942e-40
-0.15783429 0.085560001 0.55800003 8.3121942e-40
-0.15649049 0.085406676 0.55700004 8.3157815e-40
-0.15515049 0.085253336 0.55600005 9.2341645e-40
-0.15381429 0.085100003 0.55500001 7.3974826e-40
-0.15275714 0.085100003 0.55500001 6.4862883e-40
-0.15142667 0.08494667 0.55400002 8.3337322e-40
-0.14982858 0.084640011 0.55200005 1.0152505e-39
-0.14850761 0.084486663 0.551 7.4082026e-40
-0.14745809 0.084486663 0.551 5.5714926e-40
-0.14640857 0.084486663 0.551 5.5786673e-40
-0.14509524 0.084333338 0.55000001 6.4898756e-40
-0.14404762 0.084333338 0.55000001 6.493491e-40
-0.14300001 0.084333338 0.55000001 6.493477e-40
-0.14169429 0.084180005 0.54900002 8.3337462e-40
-0.14064857 0.084180005 0.54900002 1.1074434e-39
-0.13934858 0.084026672 0.54800004 1.0156051e-39
-0.13830477 0.084026672 0.54800004 1.0156079e-39
-0.13726096 0.084026672 0.54800004 1.0156093e-39
-0.13621716 0.084026672 0.54800004 1.0152491e-39
-0.13492668 0.083873339 0.54700005 7.4081605e-40
-0.13364001 0.083719999 0.546 5.57508e-40
-0.13259999 0.083719999 0.546 6.493477e-40
-0.13156 0.083719999 0.546 7.4154192e-40
-0.13028096 0.083566666 0.54500002 9.2557165e-40
-0.12924285 0.083566666 0.54500002 1.108528e-39
-0.12796953 0.08341334 0.54400003 1.016338e-39
-0.12693335 0.08341334 0.54400003 1.0177701e-39
-0.12589714 0.08341334 0.54400003 1.0184861e-39
-0.12486096 0.08341334 0.54400003 1.0184875e-39
-0.12359715 0.08326 0.54300004 1.0188463e-39
-0.12256286 0.08326 0.54300004 1.1106832e-39
-0.12152858 0.08326 0.54300004 9.2737092e-40
-0.1204943 0.08326 0.54300004 8.3589976e-40
-0.11946 0.08326 0.54300004 1.0202938e-39
-0.11842572 0.08326 0.54300004 1.2954416e-39
-0.11739144 0.08326 0.54300004 1.2950842e-39
-0.11635716 0.08326 0.54300004 1.3872785e-39
-0.11511049 0.083106674 0.54200006 1.3876386e-39
-0.11428858 0.08326 0.54300004 1.4798342e-39
-0.11325429 0.08326 0.54300004 1.3883575e-39
-0.11222 0.08326 0.54300004 1.2965248e-39
-0.11118572 0.08326 0.54300004 1.3897966e-39
-0.11015144 0.08326 0.54300004 1.5734676e-39
-0.10911715 0.08326 0.54300004 1.5738263e-39
-0.10828191 0.08341334 0.54400003 1.5745424e-39
-0.10724572 0.08341334 0.54400003 1.7585707e-39
-0.10640477 0.083566666 0.54500002 2.0337199e-39
-0.10536667 0.083566666 0.54500002 2.124482e-39
-0.10452 0.083719999 0.546 2.2163189e-39
-0.10348 0.083719999 0.546 1.849337e-39
-0.10244 0.083719999 0.546 1.5741893e-39
-0.10158572 0.083873339 0.54700005 1.574548e-39
-0.10054381 0.083873339 0.54700005 1.5741865e-39
-0.099683814 0.084026672 0.54800004 1.5738263e-39
-0.098640002 0.084026672 0.54800004 1.5741851e-39
-0.097596198 0.084026672 0.54800004 1.5745452e-39
-0.096728571 0.084180005 0.54900002 1.5745452e-39
-0.095682859 0.084180005 0.54900002 1.5745452e-39
-0.094637148 0.084180005 0.54900002 1.6663779e-39
-0.093761906 0.084333338 0.55000001 1.7578519e-39
-0.09271428 0.084333338 0.55000001 1.9411627e-39
-0.091833338 0.084486663 0.551 1.9408026e-39
-0.090783805 0.084486663 0.551 1.9404466e-39
-0.089897148 0.084640011 0.55200005 1.9404494e-39
-0.088684767 0.084486663 0.551 1.940448e-39
-0.087794289 0.084640011 0.55200005 1.9408054e-39
-0.086900003 0.084793337 0.55300003 1.9404452e-39
-0.08584667 0.084793337 0.55300003 1.9404452e-39
-0.08494667 0.08494667 0.55400002 1.9404466e-39
-0.084042862 0.085100003 0.55500001 1.9397306e-39
-0.082985714 0.085100003 0.55500001 1.9397334e-39
-0.081928574 0.085100003 0.55500001 1.7571414e-39
-0.080871426 0.085100003 0.55500001 1.5741865e-39
-0.079814285 0.085100003 0.55500001 1.7582148e-39
-0.078899056 0.085253336 0.55600005 2.0337227e-39
-0.077840008 0.085253336 0.55600005 1.8489769e-39
-0.07678096 0.085253336 0.55600005 1.6670996e-39
-0.075858101 0.085406676 0.55700004 1.9426074e-39
-0.074797146 0.085406676 0.55700004 2.2191943e-39
-0.073868573 0.085560001 0.55800003 2.1280791e-39
-0.072936192 0.085713334 0.55900002 2.1280805e-39
-0.071999997 0.085866667 0.56 2.2206349e-39
-0.070933335 0.085866667 0.56 2.4043087e-39
-0.069991432 0.086020008 0.56100005 2.679818e-39
-0.069168575 0.086326674 0.56300002 3.0478802e-39
-0.068096191 0.086326674 0.56300002 3.2326288e-39
-0.067023806 0.086326674 0.56300002 3.4170215e-39
-0.065951429 0.086326674 0.56300002 3.4188193e-39
-0.065109521 0.086633332 0.565 3.5110164e-39
-0.064033337 0.086633332 0.565 3.6035735e-39
-0.063068576 0.086786672 0.56600004 3.7876018e-39
-0.062100001 0.086939998 0.56700003 4.0641831e-39
-0.061127625 0.087093338 0.56800002 4.4318853e-39
-0.060151428 0.087246664 0.56900001 4.524441e-39
-0.059171431 0.087400012 0.57000005 4.7081134e-39
-0.057983808 0.087246664 0.56900001 4.8010251e-39
-0.057300001 0.087860003 0.57300001 4.8924963e-39
-0.056699049 0.088626668 0.57800001 4.9836073e-39
-0.05569429 0.088780008 0.57900006 5.1669406e-39
-0.054685719 0.088933334 0.58000004 5.5343022e-39
-0.053580958 0.088933334 0.58000004 5.9992404e-39
-0.052476194 0.088933334 0.58000004 6.5560155e-39
-0.051725719 0.089546673 0.58400005 7.1066627e-39
-0.050700005 0.089700006 0.58500004 6.6381512e-39
-0.04967048 0.089853331 0.58600003 6.2708148e-39
-0.048637144 0.090006672 0.58700001 9.5004897e-39
-0.047519047 0.090006672 0.58700001 1.272191e-38
-0.047270477 0.091693342 0.59800005 1.2359235e-38
-0.046131432 0.091693342 0.59800005 1.1987935e-38
-0.04506762 0.091846667 0.59900004 1.1616634e-38
0.52476192 0.15333334 1 1.0880889e-38
0.52350664 0.15241332 0.99400002 1.0788695e-38
0.5222286 0.15149334 0.98800004 1.0697221e-38
0.52251905 0.15103334 0.98500007 1.0697225e-38
0.52439529 0.15103334 0.98500007 1.0789057e-38
0.52520287 0.15072666 0.98300004 1.0789054e-38
0.52546668 0.15026666 0.98000002 1.0880529e-38
0.52733332 0.15026666 0.98000002 1.0972363e-38
0.52758002 0.14980668 0.97700006 1.1064196e-38
0.52781522 0.14934668 0.97400004 1.0880522e-38
0.52967048 0.14934668 0.97400004 1.0696498e-38
-0.28992859 0.095471427 0.61500001 1.0152505e-39
-0.28828761 0.095316187 0.61400002 1.1074448e-39
-0.28711808 0.095316187 0.61400002 1.0159694e-39
-0.28548288 0.095160954 0.61300004 9.2449405e-40
-0.28338763 0.094850481 0.611 1.2000019e-39
-0.28130001 0.094540007 0.60900003 1.4758728e-39
-0.27922001 0.094229534 0.60700005 1.2010893e-39
-0.27760571 0.094074287 0.60600001 9.2593739e-40
-0.27553904 0.093763813 0.60400003 8.3409909e-40
-0.27438858 0.093763813 0.60400003 7.422692e-40
-0.27233335 0.09345334 0.60200006 8.351879e-40
-0.27073619 0.0932981 0.60100001 9.2773525e-40
-0.26914287 0.09314286 0.60000002 1.111402e-39
-0.26710671 0.092832386 0.59800005 1.2950772e-39
-0.26552287 0.092677139 0.597 1.2021697e-39
-0.26394287 0.092521906 0.59600002 1.2025229e-39
-0.26192576 0.092211433 0.59400004 1.0181288e-39
-0.26035526 0.0920562 0.59300005 8.3409769e-40
-0.25922573 0.0920562 0.59300005 7.4226079e-40
-0.25809622 0.0920562 0.59300005 7.4225659e-40
-0.25653335 0.091900952 0.59200001 6.5005815e-40
-0.25540569 0.091900952 0.59200001 6.4970222e-40
-0.25384858 0.091745712 0.59100002 6.4970503e-40
-0.25272286 0.091745712 0.59100002 6.4970503e-40
-0.25074574 0.091435239 0.58900005 7.4082306e-40
-0.24962382 0.091435239 0.58900005 9.2341645e-40
-0.24850193 0.091435239 0.58900005 9.2341505e-40
-0.24696001 0.091279998 0.588 9.2341365e-40
-0.24583998 0.091279998 0.588 9.2341365e-40
-0.24430382 0.091124758 0.58700001 9.2341365e-40
-0.24277143 0.090969525 0.58600003 8.3121942e-40
-0.24124287 0.090814285 0.58500004 8.3121942e-40
-0.24012858 0.090814285 0.58500004 8.3086069e-40
-0.2390143 0.090814285 0.58500004 8.3085929e-40
-0.23749335 0.090659052 0.58400005 8.3085929e-40
-0.23638098 0.090659052 0.58400005 8.3157255e-40
-0.23486573 0.090503804 0.583 7.3937412e-40
-0.23335429 0.090348572 0.58200002 7.3937271e-40
-0.23224571 0.090348572 0.58200002 7.3901398e-40
-0.23074001 0.090193339 0.58100003 8.3084808e-40
-0.22963333 0.090193339 0.58100003 7.3865385e-40
-0.22813335 0.090038106 0.58000004 7.3829371e-40
-0.22663717 0.089882866 0.57900006 6.4645822e-40
-0.22514477 0.089727625 0.57800001 6.4646102e-40
-0.22404382 0.089727625 0.57800001 5.5462973e-40
-0.22294284 0.089727625 0.57800001 5.5462552e-40
-0.2218419 0.089727625 0.57800001 6.4645682e-40
-0.22074094 0.089727625 0.57800001 7.3829231e-40
-0.21964 0.089727625 0.57800001 5.5462132e-40
-0.21816097 0.089572385 0.57700002 4.6278442e-40
-0.21706191 0.089572385 0.57700002 4.6242569e-40
-0.21596286 0.089572385 0.57700002 3.7059019e-40
-0.21486382 0.089572385 0.57700002 3.7059019e-40
-0.2133943 0.089417152 0.57600003 4.6242569e-40
-0.21229716 0.089417152 0.57600003 4.6242569e-40
-0.21083334 0.089261912 0.57500005 4.6242429e-40
-0.20973812 0.089261912 0.57500005 3.7022866e-40
-0.20864287 0.089261912 0.57500005 3.7022866e-40
-0.20754763 0.089261912 0.57500005 3.7022866e-40
-0.2064524 0.089261912 0.57500005 3.7022866e-40
-0.205 0.089106664 0.574 2.7803443e-40
-0.20390667 0.089106664 0.574 2.776743e-40
-0.20281333 0.089106664 0.574 2.776729e-40
-0.20172 0.089106664 0.574 2.776729e-40
-0.20097621 0.089261912 0.57500005 2.7731416e-40
-0.19988096 0.089261912 0.57500005 3.6914966e-40
-0.19878574 0.089261912 0.57500005 3.6914966e-40
-0.1980343 0.089417152 0.57600003 3.6950839e-40
-0.19693716 0.089417152 0.57600003 2.776743e-40
-0.19550002 0.089261912 0.57500005 2.776743e-40
-0.19474286 0.089417152 0.57600003 2.7803303e-40
-0.19330955 0.089261912 0.57500005 3.6986432e-40
-0.19254857 0.089417152 0.57600003 2.7766589e-40
-0.19111906 0.089261912 0.57500005 2.7767009e-40
-0.19002381 0.089261912 0.57500005 2.776743e-40
-0.1886 0.089106664 0.574 3.7022866e-40
-0.18718 0.088951431 0.57300001 3.7023006e-40
-0.18641332 0.089106664 0.574 3.7058879e-40
-0.18531999 0.089106664 0.574 3.7059019e-40
-0.18326382 0.088640958 0.57100004 4.6242989e-40
-0.1821762 0.088640958 0.57100004 4.624341e-40
-0.18077144 0.088485725 0.57000005 4.6278863e-40
-0.17968573 0.088485725 0.57000005 5.5462132e-40
-0.17828667 0.088330477 0.56900001 6.4645682e-40
-0.17720287 0.088330477 0.56900001 6.4681695e-40
-0.17580953 0.088175237 0.56800002 7.3865385e-40
-0.17472762 0.088175237 0.56800002 8.3120821e-40
-0.1730343 0.087864771 0.56600004 1.0148778e-39
-0.17165238 0.087709524 0.565 8.3084808e-40
-0.17057618 0.087709524 0.565 6.4717568e-40
-0.1692 0.087554283 0.56400001 6.4681695e-40
-0.16782762 0.087399051 0.56300002 7.3865805e-40
-0.16675524 0.087399051 0.56300002 7.3902379e-40
-0.16568287 0.087399051 0.56300002 8.3085368e-40
-0.1643181 0.08724381 0.56200004 8.3120821e-40
-0.16324762 0.08724381 0.56200004 8.3157255e-40
-0.16217715 0.08724381 0.56200004 8.3121942e-40
-0.16053332 0.08693333 0.56 8.3121942e-40
-0.15946667 0.08693333 0.56 8.3121942e-40
-0.15811715 0.086778097 0.55900002 8.3121942e-40
-0.15677144 0.086622857 0.55800003 8.3157815e-40
-0.15542954 0.086467624 0.55700004 9.2341365e-40
-0.15381429 0.086157143 0.55500001 8.3157955e-40
-0.15275714 0.086157143 0.55500001 7.3974406e-40
-0.15142667 0.086001903 0.55400002 8.3157955e-40
-0.14982858 0.08569143 0.55200005 9.2341505e-40
-0.14877716 0.08569143 0.55200005 8.3193829e-40
-0.14745809 0.085536189 0.551 7.4082026e-40
-0.14640857 0.085536189 0.551 7.4046152e-40
-0.14535904 0.085536189 0.551 8.3230122e-40
-0.14404762 0.085380957 0.55000001 8.319481e-40
-0.14300001 0.085380957 0.55000001 8.3158516e-40
-0.14169429 0.085225724 0.54900002 8.3158096e-40
-0.14039238 0.085070483 0.54800004 8.3193829e-40
-0.13934858 0.085070483 0.54800004 9.2341505e-40
-0.13830477 0.085070483 0.54800004 9.2341505e-40
-0.13726096 0.085070483 0.54800004 9.2341505e-40
-0.13621716 0.085070483 0.54800004 1.0152463e-39
-0.13492668 0.084915251 0.54700005 7.4117058e-40
-0.13388477 0.084915251 0.54700005 5.5786393e-40
-0.13259999 0.084760003 0.546 6.4970503e-40
-0.13156 0.084760003 0.546 7.4189926e-40
-0.13052 0.084760003 0.546 8.3373615e-40
-0.12924285 0.084604762 0.54500002 9.2342486e-40
-0.12820476 0.084604762 0.54500002 9.2486539e-40
-0.12716667 0.084604762 0.54500002 9.2593739e-40
-0.12589714 0.08444953 0.54400003 9.2629192e-40
-0.12486096 0.08444953 0.54400003 9.2629192e-40
-0.12359715 0.084294297 0.54300004 9.2629332e-40
-0.12256286 0.084294297 0.54300004 9.2665205e-40
-0.12152858 0.084294297 0.54300004 9.2701218e-40
-0.1204943 0.084294297 0.54300004 9.2773385e-40
-0.11946 0.084294297 0.54300004 1.0192162e-39
-0.11842572 0.084294297 0.54300004 1.2028872e-39
-0.11739144 0.084294297 0.54300004 1.2028886e-39
-0.11614287 0.084139057 0.54200006 1.2950842e-39
-0.11511049 0.084139057 0.54200006 1.2958031e-39
-0.1140781 0.084139057 0.54200006 1.2039676e-39
-0.11304572 0.084139057 0.54200006 1.2046865e-39
-0.11201335 0.084139057 0.54200006 1.2965248e-39
-0.11098097 0.084139057 0.54200006 1.2972464e-39
-0.11015144 0.084294297 0.54300004 1.3887204e-39
-0.10911715 0.084294297 0.54300004 1.4816307e-39
-0.10808286 0.084294297 0.54300004 1.5741837e-39
-0.10724572 0.08444953 0.54400003 1.6660206e-39
-0.10620952 0.08444953 0.54400003 1.7582162e-39
-0.10536667 0.084604762 0.54500002 1.8504118e-39
-0.10432857 0.084604762 0.54500002 1.9426046e-39
-0.10348 0.084760003 0.546 1.8507692e-39
-0.10244 0.084760003 0.546 1.6670982e-39
-0.1014 0.084760003 0.546 1.6667408e-39
-0.10036 0.084760003 0.546 1.666022e-39
-0.099501915 0.084915251 0.54700005 1.666022e-39
-0.098640002 0.085070483 0.54800004 1.5745452e-39
-0.097596198 0.085070483 0.54800004 1.5741865e-39
-0.096552387 0.085070483 0.54800004 1.5741865e-39
-0.095508575 0.085070483 0.54800004 1.5741865e-39
-0.094637148 0.085225724 0.54900002 1.5745438e-39
-0.093591429 0.085225724 0.54900002 1.7578547e-39
-0.092545718 0.085225724 0.54900002 1.9397278e-39
-0.091666669 0.085380957 0.55000001 1.9400837e-39
-0.09061905 0.085380957 0.55000001 1.9397278e-39
-0.089734286 0.085536189 0.551 1.8482552e-39
-0.088684767 0.085536189 0.551 1.7571344e-39
-0.087635234 0.085536189 0.551 1.757133e-39
-0.086742863 0.08569143 0.55200005 1.7571358e-39
-0.08584667 0.08584667 0.55300003 1.8486154e-39
-0.084793337 0.08584667 0.55300003 1.9404494e-39
-0.083891436 0.086001903 0.55400002 1.9400907e-39
-0.082985714 0.086157143 0.55500001 1.9400921e-39
-0.081928574 0.086157143 0.55500001 1.7574987e-39
-0.080871426 0.086157143 0.55500001 1.5745452e-39
-0.079814285 0.086157143 0.55500001 1.6663807e-39
-0.078757145 0.086157143 0.55500001 1.7582162e-39
-0.077840008 0.086312383 0.55600005 1.7585763e-39
-0.07678096 0.086312383 0.55600005 1.6670996e-39
-0.075858101 0.086467624 0.55700004 1.9426074e-39
-0.074797146 0.086467624 0.55700004 2.1273588e-39
-0.073868573 0.086622857 0.55800003 2.2195587e-39
-0.072936192 0.086778097 0.55900002 2.219916e-39
-0.07187143 0.086778097 0.55900002 2.4043045e-39
-0.070933335 0.08693333 0.56 2.5879783e-39
-0.069991432 0.087088577 0.56100005 2.6798166e-39
-0.069045715 0.08724381 0.56200004 2.863489e-39
-0.067975245 0.08724381 0.56200004 3.0478788e-39
-0.067023806 0.087399051 0.56300002 3.2326302e-39
-0.065951429 0.087399051 0.56300002 3.2340693e-39
-0.06499429 0.087554283 0.56400001 3.2351483e-39
-0.064033337 0.087709524 0.565 3.4191823e-39
-0.062957145 0.087709524 0.565 3.6954062e-39
-0.061990481 0.087864771 0.56600004 3.9716302e-39
-0.061020005 0.088020004 0.56700003 4.2478569e-39
-0.059940003 0.088020004 0.56700003 4.4318895e-39
-0.058963813 0.088175237 0.56800002 4.6162779e-39
-0.057881907 0.088175237 0.56800002 4.7081134e-39
-0.056800004 0.088175237 0.56800002 4.8921459e-39
-0.055718098 0.088175237 0.56800002 5.075461e-39
-0.055598095 0.089727625 0.57800001 5.2591278e-39
-0.054591436 0.089882866 0.57900006 5.7175836e-39
-0.053488575 0.089882866 0.57900006 6.1818086e-39
-0.052476194 0.090038106 0.58000004 6.830422e-39
-0.051725719 0.090659052 0.58400005 7.4707425e-39
-0.050700005 0.090814285 0.58500004 7.2852624e-39
-0.04967048 0.090969525 0.58600003 7.1920158e-39
-0.048637144 0.091124758 0.58700001 8.7632876e-39
-0.047519047 0.091124758 0.58700001 1.0421001e-38
-0.046400953 0.091124758 0.58700001 1.1255784e-38
-0.04506762 0.092987627 0.59900004 1.1615554e-38
0.52285713 0.15523809 1 1.0973085e-38
0.52476192 0.15523809 1 1.0881248e-38
0.52350664 0.15430667 0.99400002 1.0789054e-38
0.5222286 0.15337524 0.98800004 1.0789055e-38
0.52251905 0.15290953 0.98500007 1.0696864e-38
0.52439529 0.15290953 0.98500007 1.0696502e-38
0.52520287 0.15259905 0.98300004 1.0787978e-38
0.52546668 0.15213333 0.98000002 1.087981e-38
0.52733332 0.15213333 0.98000002 1.0879807e-38
0.52758002 0.15166762 0.97700006 1.0880161e-38
0.52781522 0.15120192 0.97400004 1.0604291e-38
0.52967048 0.15120192 0.97400004 1.0418833e-38
-0.28945717 0.096485719 0.61400002 7.3902239e-40
-0.28828761 0.096485719 0.61400002 9.2305211e-40
-0.28665051 0.096328571 0.61300004 7.3974126e-40
-0.28548288 0.096328571 0.61300004 6.4826589e-40
-0.28338763 0.096014284 0.611 8.3229842e-40
-0.28222379 0.096014284 0.611 1.1081664e-39
-0.27968001 0.095542863 0.60800004 1.0174113e-39
-0.2780638 0.095385723 0.60700005 9.2557445e-40
-0.27645144 0.095228568 0.60600001 7.4405445e-40
-0.27484289 0.095071435 0.60500002 6.5007217e-40
-0.27323812 0.094914287 0.60400003 6.515141e-40
-0.27118671 0.094600007 0.60200006 7.433454e-40
-0.27004001 0.094600007 0.60200006 8.3517669e-40
-0.26710671 0.093971431 0.59800005 1.0184932e-39
-0.26552287 0.093814284 0.597 1.0184974e-39
-0.26350001 0.093500003 0.59500003 1.0184917e-39
-0.26192576 0.093342863 0.59400004 9.2665205e-40
-0.26035526 0.093185723 0.59300005 9.2629192e-40
-0.25922573 0.093185723 0.59300005 8.3445502e-40
-0.25809622 0.093185723 0.59300005 8.3409348e-40
-0.25653335 0.093028568 0.59200001 7.4225659e-40
-0.25540569 0.093028568 0.59200001 6.4970222e-40
-0.25384858 0.092871435 0.59100002 6.4970082e-40
-0.25229523 0.092714287 0.59000003 6.4934069e-40
-0.25074574 0.092557147 0.58900005 8.3301168e-40
-0.24962382 0.092557147 0.58900005 1.0152491e-39
-0.24850193 0.092557147 0.58900005 1.0152505e-39
-0.24696001 0.092399999 0.588 1.0152491e-39
-0.24583998 0.092399999 0.588 9.2341365e-40
-0.24430382 0.092242859 0.58700001 9.2341365e-40
-0.24277143 0.092085719 0.58600003 9.2341365e-40
-0.24124287 0.091928579 0.58500004 9.2305492e-40
-0.24012858 0.091928579 0.58500004 8.3086069e-40
-0.2390143 0.091928579 0.58500004 8.3085929e-40
-0.23749335 0.091771439 0.58400005 8.3085929e-40
-0.23638098 0.091771439 0.58400005 8.3049775e-40
-0.23486573 0.091614284 0.583 7.3866085e-40
-0.23375525 0.091614284 0.583 6.4682396e-40
-0.23224571 0.091457151 0.58200002 7.3865945e-40
-0.23074001 0.091300003 0.58100003 8.3049355e-40
-0.22963333 0.091300003 0.58100003 7.3829932e-40
-0.22813335 0.091142863 0.58000004 6.4646102e-40
-0.22663717 0.090985723 0.57900006 6.4681695e-40
-0.22514477 0.090828575 0.57800001 6.4646102e-40
-0.22404382 0.090828575 0.57800001 5.54271e-40
-0.22294284 0.090828575 0.57800001 5.5426819e-40
-0.2218419 0.090828575 0.57800001 7.3829652e-40
-0.22074094 0.090828575 0.57800001 9.2196751e-40
-0.21964 0.090828575 0.57800001 6.4646102e-40
-0.21816097 0.090671428 0.57700002 4.6242849e-40
-0.21706191 0.090671428 0.57700002 4.6242569e-40
-0.21596286 0.090671428 0.57700002 4.6242569e-40
-0.21486382 0.090671428 0.57700002 4.6242569e-40
-0.2133943 0.090514295 0.57600003 4.6242429e-40
-0.21229716 0.090514295 0.57600003 4.6242429e-40
-0.21120001 0.090514295 0.57600003 4.6242569e-40
-0.21010287 0.090514295 0.57600003 3.7023286e-40
-0.20864287 0.090357147 0.57500005 3.7023006e-40
-0.20754763 0.090357147 0.57500005 3.7022866e-40
-0.2064524 0.090357147 0.57500005 3.7022866e-40
-0.20535715 0.090357147 0.57500005 2.7803443e-40
-0.20426193 0.090357147 0.57500005 2.7803303e-40
-0.20316668 0.090357147 0.57500005 2.7803163e-40
-0.20207144 0.090357147 0.57500005 2.776729e-40
-0.20097621 0.090357147 0.57500005 3.6986712e-40
-0.19988096 0.090357147 0.57500005 4.6062362e-40
-0.19878574 0.090357147 0.57500005 4.6098095e-40
-0.1980343 0.090514295 0.57600003 4.6134249e-40
-0.19693716 0.090514295 0.57600003 3.6950839e-40
-0.19584002 0.090514295 0.57600003 2.776729e-40
-0.19474286 0.090514295 0.57600003 2.7803163e-40
-0.19364573 0.090514295 0.57600003 2.7767149e-40
-0.19254857 0.090514295 0.57600003 2.7766869e-40
-0.19145145 0.090514295 0.57600003 2.7767009e-40
-0.19035429 0.090514295 0.57600003 2.776729e-40
-0.18925716 0.090514295 0.57600003 3.6986853e-40
-0.18816 0.090514295 0.57600003 3.7022866e-40
-0.18706287 0.090514295 0.57600003 3.7023146e-40
-0.18628858 0.090671428 0.57700002 3.70593e-40
-0.18551047 0.090828575 0.57800001 4.6242849e-40
-0.18281429 0.090042859 0.57300001 4.6242989e-40
-0.1810886 0.089728571 0.57100004 4.6242709e-40
-0.18000096 0.089728571 0.57100004 5.5461992e-40
-0.17860001 0.089571439 0.57000005 6.4645682e-40
-0.1775143 0.089571439 0.57000005 7.3865105e-40
-0.17611904 0.089414284 0.56900001 8.3049075e-40
-0.17503524 0.089414284 0.56900001 1.0152435e-39
-0.17334001 0.089100003 0.56700003 1.2903871e-39
-0.17165238 0.088785715 0.565 9.2196611e-40
-0.17057618 0.088785715 0.565 6.4645682e-40
-0.1692 0.088628575 0.56400001 7.3828951e-40
-0.16782762 0.088471435 0.56300002 8.3048934e-40
-0.16675524 0.088471435 0.56300002 8.3085508e-40
-0.16568287 0.088471435 0.56300002 8.3085368e-40
-0.16461048 0.088471435 0.56300002 8.3121241e-40
-0.1635381 0.088471435 0.56300002 8.3121382e-40
-0.16217715 0.088314287 0.56200004 8.3157395e-40
-0.16110668 0.088314287 0.56200004 9.2340945e-40
-0.15975145 0.088157155 0.56100005 9.2340945e-40
-0.1584 0.088 0.56 9.2341085e-40
-0.15705238 0.087842859 0.55900002 9.2341365e-40
-0.15542954 0.087528579 0.55700004 9.2305211e-40
-0.15381429 0.087214291 0.55500001 9.2304931e-40
-0.15275714 0.087214291 0.55500001 9.2305211e-40
-0.1517 0.087214291 0.55500001 9.2341365e-40
-0.15010001 0.086900003 0.55300003 9.2341365e-40
-0.14877716 0.086742863 0.55200005 9.2341365e-40
-0.14772573 0.086742863 0.55200005 9.2341365e-40
-0.14667429 0.086742863 0.55200005 9.2341365e-40
-0.14535904 0.086585715 0.551 1.0152519e-39
-0.14404762 0.086428568 0.55000001 1.0156149e-39
-0.14300001 0.086428568 0.55000001 1.1074476e-39
-0.14195238 0.086428568 0.55000001 8.3229842e-40
-0.14039238 0.086114287 0.54800004 6.4862603e-40
-0.13934858 0.086114287 0.54800004 7.4082026e-40
-0.13830477 0.086114287 0.54800004 9.2341505e-40
-0.13726096 0.086114287 0.54800004 9.2341505e-40
-0.13621716 0.086114287 0.54800004 1.0152477e-39
-0.13517334 0.086114287 0.54800004 8.3336901e-40
-0.13388477 0.085957147 0.54700005 6.4970222e-40
-0.13284287 0.085957147 0.54700005 6.4970503e-40
-0.13156 0.0858 0.546 7.4154052e-40
-0.13052 0.0858 0.546 7.4189926e-40
-0.12924285 0.085642859 0.54500002 7.4190346e-40
-0.12820476 0.085642859 0.54500002 8.3374176e-40
-0.12716667 0.085642859 0.54500002 9.2593458e-40
-0.12589714 0.085485712 0.54400003 9.2629192e-40
-0.12486096 0.085485712 0.54400003 9.2629192e-40
-0.12382477 0.085485712 0.54400003 8.3373896e-40
-0.12256286 0.085328579 0.54300004 7.4226359e-40
-0.12152858 0.085328579 0.54300004 9.2701218e-40
-0.1204943 0.085328579 0.54300004 1.1110433e-39
-0.11946 0.085328579 0.54300004 1.1110461e-39
-0.11820763 0.085171439 0.54200006 1.1106902e-39
-0.11717525 0.085171439 0.54200006 1.2025285e-39
-0.11614287 0.085171439 0.54200006 1.2947213e-39
-0.11511049 0.085171439 0.54200006 1.1121251e-39
-0.1140781 0.085171439 0.54200006 1.0206526e-39
-0.11304572 0.085171439 0.54200006 1.1128496e-39
-0.11201335 0.085171439 0.54200006 1.2965234e-39
-0.11098097 0.085171439 0.54200006 1.297601e-39
-0.10994858 0.085171439 0.54200006 1.2972422e-39
-0.1089162 0.085171439 0.54200006 1.3897938e-39
-0.10808286 0.085328579 0.54300004 1.5738249e-39
-0.10704858 0.085328579 0.54300004 1.5741851e-39
-0.1060143 0.085328579 0.54300004 1.5745452e-39
-0.10517334 0.085485712 0.54400003 1.6670996e-39
-0.10413715 0.085485712 0.54400003 1.7589337e-39
-0.10329048 0.085642859 0.54500002 1.7585749e-39
-0.10225239 0.085642859 0.54500002 1.8507692e-39
-0.1014 0.0858 0.546 1.8507706e-39
-0.10036 0.0858 0.546 1.8507706e-39
-0.099320002 0.0858 0.546 1.7589351e-39
-0.098279998 0.0858 0.546 1.6667394e-39
-0.0974181 0.085957147 0.54700005 1.5741865e-39
-0.096552387 0.086114287 0.54800004 1.5738277e-39
-0.095508575 0.086114287 0.54800004 1.573469e-39
-0.094464764 0.086114287 0.54800004 1.5749025e-39
-0.09342096 0.086114287 0.54800004 1.7582148e-39
-0.092545718 0.086271435 0.54900002 2.033001e-39
-0.091500007 0.086271435 0.54900002 2.0326409e-39
-0.090454288 0.086271435 0.54900002 2.0319248e-39
-0.089571431 0.086428568 0.55000001 1.7582134e-39
-0.088523813 0.086428568 0.55000001 1.5731061e-39
-0.087635234 0.086585715 0.551 1.5734648e-39
-0.086742863 0.086742863 0.55200005 1.5734662e-39
-0.08584667 0.086900003 0.55300003 1.7571372e-39
-0.084793337 0.086900003 0.55300003 1.9404509e-39
-0.083740003 0.086900003 0.55300003 1.9404523e-39
-0.082836196 0.087057143 0.55400002 1.9397334e-39
-0.081928574 0.087214291 0.55500001 1.7578547e-39
-0.080871426 0.087214291 0.55500001 1.5741851e-39
-0.079814285 0.087214291 0.55500001 1.5745438e-39
-0.078757145 0.087214291 0.55500001 1.5745452e-39
-0.077840008 0.087371431 0.55600005 1.6667394e-39
-0.07678096 0.087371431 0.55600005 1.7585749e-39
-0.075721912 0.087371431 0.55600005 1.942606e-39
-0.074797146 0.087528579 0.55700004 2.12664e-39
-0.073868573 0.087685719 0.55800003 2.2191971e-39
-0.072936192 0.087842859 0.55900002 2.4032269e-39
-0.07187143 0.087842859 0.55900002 2.5879741e-39
-0.070806667 0.087842859 0.55900002 2.7712891e-39
-0.069866665 0.088 0.56 2.7709346e-39
-0.068922862 0.088157155 0.56100005 2.7716507e-39
-0.067975245 0.088314287 0.56200004 2.9553202e-39
-0.067023806 0.088471435 0.56300002 3.1397129e-39
-0.065951429 0.088471435 0.56300002 3.0496767e-39
-0.06499429 0.088628575 0.56400001 2.9582041e-39
-0.063920006 0.088628575 0.56400001 3.3262678e-39
-0.062957145 0.088785715 0.565 3.6943286e-39
-0.06188095 0.088785715 0.565 3.8787185e-39
-0.060912386 0.088942863 0.56600004 4.0631097e-39
-0.059940003 0.089100003 0.56700003 4.2474996e-39
-0.058860004 0.089100003 0.56700003 4.523725e-39
-0.057881907 0.089257143 0.56800002 4.7084721e-39
-0.056899998 0.089414284 0.56900001 4.9839814e-39
-0.056012385 0.089728571 0.57100004 5.1683727e-39
-0.055117141 0.090042859 0.57300001 5.3513262e-39
-0.054402858 0.090671428 0.57700002 5.8094289e-39
-0.053396191 0.090828575 0.57800001 6.362967e-39
-0.052385718 0.090985723 0.57900006 7.1051998e-39
-0.051371429 0.091142863 0.58000004 7.8384362e-39
-0.050613336 0.091771439 0.58400005 7.927748e-39
-0.049585715 0.091928579 0.58500004 8.1110798e-39
-0.048637144 0.092242859 0.58700001 8.1179154e-39
-0.047519047 0.092242859 0.58700001 8.2133508e-39
-0.046400953 0.092242859 0.58700001 1.0244508e-38
-0.045282859 0.092242859 0.58700001 1.2262362e-38
0.52285713 0.15714286 1 1.0973442e-38
0.52318764 0.15667143 0.99700004 1.0881247e-38
0.52350664 0.15620001 0.99400002 1.0881245e-38
0.5222286 0.15525715 0.98800004 1.0972725e-38
0.5241105 0.15525715 0.98800004 1.0788696e-38
0.52439529 0.15478572 0.98500007 1.0604665e-38
0.52627146 0.15478572 0.98500007 1.0696501e-38
0.52546668 0.154 0.98000002 1.087981e-38
0.52571905 0.15352859 0.97700006 1.0787973e-38
0.52758002 0.15352859 0.97700006 1.0788328e-38
0.52781522 0.15305714 0.97400004 1.0420266e-38
0.52967048 0.15305714 0.97400004 1.0144765e-38
-0.28945717 0.097655237 0.61400002 5.54271e-40
-0.2878181 0.097496189 0.61300004 6.4646663e-40
-0.28665051 0.097496189 0.61300004 6.4682676e-40
-0.28501716 0.097337149 0.61200005 5.5571013e-40
-0.28338763 0.097178094 0.611 7.3938392e-40
-0.28222379 0.097178094 0.611 9.2341505e-40
-0.28014001 0.096859999 0.60900003 8.3265715e-40
-0.27852193 0.096700951 0.60800004 7.4189926e-40
-0.27736384 0.096700951 0.60800004 6.5006516e-40
-0.27620572 0.096700951 0.60800004 6.5007077e-40
-0.27504763 0.096700951 0.60800004 6.5079384e-40
-0.27388954 0.096700951 0.60800004 6.515071e-40
-0.26779714 0.094951428 0.597 8.3481655e-40
-0.26666 0.094951428 0.597 9.2665625e-40
-0.2650781 0.094792388 0.59600002 1.0181372e-39
-0.26350001 0.094633341 0.59500003 1.2014453e-39
-0.26192576 0.094474293 0.59400004 1.1099643e-39
-0.26079431 0.094474293 0.59400004 1.1106804e-39
-0.25922573 0.094315246 0.59300005 1.1099615e-39
-0.25809622 0.094315246 0.59300005 1.0177673e-39
-0.25653335 0.094156191 0.59200001 1.0174085e-39
-0.25497431 0.093997151 0.59100002 9.2556744e-40
-0.25341907 0.093838103 0.59000003 8.3336761e-40
-0.25186765 0.093679056 0.58900005 6.4933648e-40
-0.25074574 0.093679056 0.58900005 7.4117058e-40
-0.24962382 0.093679056 0.58900005 8.3157535e-40
-0.24808 0.093520001 0.588 7.3974406e-40
-0.24696001 0.093520001 0.588 7.3974406e-40
-0.2454219 0.093360953 0.58700001 8.3157955e-40
-0.24430382 0.093360953 0.58700001 9.2377378e-40
-0.24277143 0.093201913 0.58600003 9.2341505e-40
-0.24124287 0.093042865 0.58500004 9.2341365e-40
-0.23971811 0.092883818 0.58400005 8.3121942e-40
-0.23860574 0.092883818 0.58400005 8.3121802e-40
-0.2379 0.093042865 0.58500004 8.3085929e-40
-0.23638098 0.092883818 0.58400005 8.3085929e-40
-0.23526859 0.092883818 0.58400005 7.3866506e-40
-0.23375525 0.092724763 0.583 7.3866506e-40
-0.23184668 0.092406675 0.58100003 7.3866506e-40
-0.23074001 0.092406675 0.58100003 7.3866366e-40
-0.22963333 0.092406675 0.58100003 6.4682676e-40
-0.22813335 0.092247628 0.58000004 6.4682256e-40
-0.22663717 0.09208858 0.57900006 6.4645962e-40
-0.22514477 0.091929525 0.57800001 6.4646242e-40
-0.22404382 0.091929525 0.57800001 5.54271e-40
-0.22294284 0.091929525 0.57800001 4.624355e-40
-0.2218419 0.091929525 0.57800001 5.5462973e-40
-0.22074094 0.091929525 0.57800001 6.4646522e-40
-0.21964 0.091929525 0.57800001 5.54271e-40
-0.21816097 0.091770478 0.57700002 4.6242989e-40
-0.21706191 0.091770478 0.57700002 4.6242569e-40
-0.21596286 0.091770478 0.57700002 4.6242569e-40
-0.21486382 0.091770478 0.57700002 4.6242569e-40
-0.21376476 0.091770478 0.57700002 4.6242429e-40
-0.21266572 0.091770478 0.57700002 3.7058879e-40
-0.21120001 0.091611437 0.57600003 3.70593e-40
-0.21010287 0.091611437 0.57600003 3.7023847e-40
-0.20900571 0.091611437 0.57600003 3.705916e-40
-0.20790859 0.091611437 0.57600003 3.7022866e-40
-0.2064524 0.09145239 0.57500005 3.7022866e-40
-0.20535715 0.09145239 0.57500005 2.7803443e-40
-0.20426193 0.09145239 0.57500005 2.7803303e-40
-0.20316668 0.09145239 0.57500005 2.776729e-40
-0.20242286 0.091611437 0.57600003 2.776729e-40
-0.20132573 0.091611437 0.57600003 3.6914966e-40
-0.20022857 0.091611437 0.57600003 4.6062222e-40
-0.19913144 0.091611437 0.57600003 4.6061942e-40
-0.1980343 0.091611437 0.57600003 4.6133968e-40
-0.19693716 0.091611437 0.57600003 3.6950839e-40
-0.19584002 0.091611437 0.57600003 2.7731416e-40
-0.19474286 0.091611437 0.57600003 2.776729e-40
-0.19364573 0.091611437 0.57600003 2.776729e-40
-0.19288287 0.091770478 0.57700002 2.7731416e-40
-0.19178382 0.091770478 0.57700002 2.7731276e-40
-0.19068477 0.091770478 0.57700002 2.7731276e-40
-0.18958572 0.091770478 0.57700002 2.7803163e-40
-0.18848668 0.091770478 0.57700002 2.7803303e-40
-0.18738762 0.091770478 0.57700002 2.7803723e-40
-0.18628858 0.091770478 0.57700002 4.6207256e-40
-0.18518953 0.091770478 0.57700002 6.4609949e-40
-0.18377143 0.091611437 0.57600003 5.5426119e-40
-0.1826743 0.091611437 0.57600003 4.6242569e-40
-0.18094666 0.091293335 0.574 4.6242569e-40
-0.17891334 0.0908162 0.57100004 5.5461992e-40
-0.17782572 0.0908162 0.57100004 6.4645682e-40
-0.17642859 0.090657152 0.57000005 7.3865805e-40
-0.17534287 0.090657152 0.57000005 8.3086069e-40
-0.17395143 0.090498097 0.56900001 9.2304931e-40
-0.17195621 0.090020962 0.56600004 7.3865525e-40
-0.17057618 0.089861907 0.565 6.4681415e-40
-0.16950001 0.089861907 0.565 6.4680854e-40
-0.1681257 0.08970286 0.56400001 7.3864964e-40
-0.16705143 0.08970286 0.56400001 7.3901538e-40
-0.16597714 0.08970286 0.56400001 8.3157255e-40
-0.16461048 0.089543812 0.56300002 7.3938252e-40
-0.1635381 0.089543812 0.56300002 6.4754422e-40
-0.16217715 0.089384764 0.56200004 7.3973565e-40
-0.16082001 0.089225724 0.56100005 9.2376537e-40
-0.15946667 0.089066662 0.56 9.2340664e-40
-0.15811715 0.088907622 0.55900002 9.2376818e-40
-0.15705238 0.088907622 0.55900002 8.3121942e-40
-0.15542954 0.088589527 0.55700004 8.3121382e-40
-0.15409145 0.088430487 0.55600005 8.3120821e-40
-0.15275714 0.088271424 0.55500001 7.3937832e-40
-0.1517 0.088271424 0.55500001 8.3121942e-40
-0.15037143 0.088112384 0.55400002 9.2341365e-40
-0.14904667 0.087953337 0.55300003 9.2341365e-40
-0.14799334 0.087953337 0.55300003 9.2341365e-40
-0.14667429 0.087794289 0.55200005 8.3157815e-40
-0.14535904 0.087635234 0.551 8.3157955e-40
-0.14430952 0.087635234 0.551 9.2341645e-40
-0.14300001 0.087476186 0.55000001 1.0156107e-39
-0.14169429 0.087317146 0.54900002 8.3265715e-40
-0.14039238 0.087158099 0.54800004 6.4934349e-40
-0.13934858 0.087158099 0.54800004 7.4010279e-40
-0.13830477 0.087158099 0.54800004 9.2341505e-40
-0.13726096 0.087158099 0.54800004 9.2341505e-40
-0.13621716 0.087158099 0.54800004 9.2341505e-40
-0.13517334 0.087158099 0.54800004 7.4082166e-40
-0.13412954 0.087158099 0.54800004 6.4970503e-40
-0.13284287 0.086999051 0.54700005 6.4970643e-40
-0.13156 0.086839996 0.546 6.4862883e-40
-0.13052 0.086839996 0.546 6.4970503e-40
-0.12924285 0.086680949 0.54500002 7.4190066e-40
-0.12820476 0.086680949 0.54500002 7.4190206e-40
-0.12716667 0.086680949 0.54500002 8.3409629e-40
-0.12589714 0.086521909 0.54400003 9.2593318e-40
-0.12486096 0.086521909 0.54400003 1.1099615e-39
-0.12382477 0.086521909 0.54400003 8.3373755e-40
-0.12256286 0.086362861 0.54300004 6.5006796e-40
-0.12152858 0.086362861 0.54300004 8.3481795e-40
-0.1204943 0.086362861 0.54300004 1.0192064e-39
-0.11924001 0.086203814 0.54200006 1.0188477e-39
-0.11820763 0.086203814 0.54200006 1.1103286e-39
-0.11717525 0.086203814 0.54200006 1.1103343e-39
-0.11614287 0.086203814 0.54200006 1.2025243e-39
-0.11511049 0.086203814 0.54200006 1.0188491e-39
-0.1140781 0.086203814 0.54200006 9.2701919e-40
-0.11304572 0.086203814 0.54200006 1.1121321e-39
-0.11201335 0.086203814 0.54200006 1.3883561e-39
-0.11098097 0.086203814 0.54200006 1.296522e-39
-0.10994858 0.086203814 0.54200006 1.2046865e-39
-0.1089162 0.086203814 0.54200006 1.3894351e-39
-0.10788383 0.086203814 0.54200006 1.481272e-39
-0.10704858 0.086362861 0.54300004 1.4819908e-39
-0.1060143 0.086362861 0.54300004 1.5745452e-39
-0.10498001 0.086362861 0.54300004 1.6667408e-39
-0.10413715 0.086521909 0.54400003 1.7589351e-39
-0.10329048 0.086680949 0.54500002 1.7589351e-39
-0.10225239 0.086680949 0.54500002 1.8507706e-39
-0.10121429 0.086680949 0.54500002 1.8511293e-39
-0.10017619 0.086680949 0.54500002 1.851488e-39
-0.099138096 0.086680949 0.54500002 1.9426074e-39
-0.098279998 0.086839996 0.546 1.942606e-39
-0.0974181 0.086999051 0.54700005 1.8500531e-39
-0.096376196 0.086999051 0.54700005 1.6670996e-39
-0.095334291 0.086999051 0.54700005 1.6670996e-39
-0.094292387 0.086999051 0.54700005 1.6670982e-39
-0.09342096 0.087158099 0.54800004 1.8504104e-39
-0.092377149 0.087158099 0.54800004 2.0330038e-39
-0.091333345 0.087158099 0.54800004 2.0326451e-39
-0.090289533 0.087158099 0.54800004 2.0322849e-39
-0.089245722 0.087158099 0.54800004 1.848614e-39
-0.08820191 0.087158099 0.54800004 1.7567799e-39
-0.087476186 0.087476186 0.55000001 1.7574987e-39
-0.086585715 0.087635234 0.551 1.7582148e-39
-0.08569143 0.087794289 0.55200005 1.8489727e-39
-0.084793337 0.087953337 0.55300003 1.9404523e-39
-0.083740003 0.087953337 0.55300003 1.9404565e-39
-0.08268667 0.087953337 0.55300003 1.9397348e-39
-0.081780955 0.088112384 0.55400002 1.8486126e-39
-0.080871426 0.088271424 0.55500001 1.7567785e-39
-0.079814285 0.088271424 0.55500001 1.7567799e-39
-0.078757145 0.088271424 0.55500001 1.7571386e-39
-0.077699997 0.088271424 0.55500001 1.666022e-39
-0.07678096 0.088430487 0.55600005 1.6667394e-39
-0.075721912 0.088430487 0.55600005 1.7582162e-39
-0.074797146 0.088589527 0.55700004 1.9415327e-39
-0.073736191 0.088589527 0.55700004 2.0348073e-39
-0.072805718 0.088748574 0.55800003 2.2191957e-39
-0.07187143 0.088907622 0.55900002 2.4032255e-39
-0.070806667 0.088907622 0.55900002 2.5876181e-39
-0.069866665 0.089066662 0.56 2.6794578e-39
-0.068799995 0.089066662 0.56 2.7716479e-39
-0.067854293 0.089225724 0.56100005 2.8634791e-39
-0.066904768 0.089384764 0.56200004 2.9553202e-39
-0.065951429 0.089543812 0.56300002 2.6805368e-39
-0.06499429 0.08970286 0.56400001 2.4057534e-39
-0.063920006 0.08970286 0.56400001 2.865654e-39
-0.062845714 0.08970286 0.56400001 3.4177459e-39
-0.06188095 0.089861907 0.565 3.6014197e-39
-0.060804762 0.089861907 0.565 3.7854509e-39
-0.05972857 0.089861907 0.565 4.0627524e-39
-0.058860004 0.090180002 0.56700003 4.3396952e-39
-0.057780001 0.090180002 0.56700003 4.6159206e-39
-0.056899998 0.090498097 0.56900001 4.8003104e-39
-0.056012385 0.0908162 0.57100004 5.0765372e-39
-0.054924767 0.0908162 0.57100004 5.4446023e-39
-0.05412 0.091293335 0.574 5.994546e-39
-0.053119052 0.09145239 0.57500005 6.5444856e-39
-0.052204765 0.091770478 0.57700002 7.1055473e-39
-0.051194288 0.091929525 0.57800001 7.6554743e-39
-0.050440002 0.092565715 0.58200002 7.7444315e-39
-0.049585715 0.093042865 0.58500004 7.9281179e-39
-0.048554286 0.093201913 0.58600003 7.9335143e-39
-0.047438096 0.093201913 0.58600003 7.9342458e-39
-0.046321906 0.093201913 0.58600003 9.9607406e-39
-0.045282859 0.093360953 0.58700001 1.1987209e-38
-0.044164762 0.093360953 0.58700001 1.1338609e-38
0.52285713 0.15904762 1 1.0880889e-38
0.52318764 0.15857048 0.99700004 1.0789051e-38
0.52350664 0.15809333 0.99400002 1.0880168e-38
0.5222286 0.15713905 0.98800004 1.1063481e-38
0.5241105 0.15713905 0.98800004 1.0879454e-38
0.52439529 0.15666191 0.98500007 1.0695783e-38
0.52627146 0.15666191 0.98500007 1.0787619e-38
0.52707523 0.15634382 0.98300004 1.0971647e-38
0.52894765 0.15634382 0.98300004 1.0787975e-38
0.52920002 0.15586667 0.98000002 1.0696497e-38
0.529441 0.15538953 0.97700006 1.060466e-38
0.53130192 0.15538953 0.97700006 1.0420991e-38
-0.2878181 0.098663814 0.61300004 4.6242989e-40
-0.28618288 0.098502867 0.61200005 4.6279003e-40
-0.28501716 0.098502867 0.61200005 5.5462693e-40
-0.28385147 0.098502867 0.61200005 6.4682256e-40
-0.28222379 0.098341905 0.611 8.3121522e-40
-0.28106001 0.098341905 0.611 7.3974406e-40
-0.27898002 0.098020002 0.60900003 6.4862603e-40
-0.27781999 0.098020002 0.60900003 6.4970363e-40
-0.27666 0.098020002 0.60900003 6.4970923e-40
-0.27504763 0.097859055 0.60800004 6.4971484e-40
-0.27388954 0.097859055 0.60800004 6.504295e-40
-0.26779714 0.096088566 0.597 7.4297966e-40
-0.26666 0.096088566 0.597 9.2629332e-40
-0.2650781 0.095927618 0.59600002 1.1092496e-39
-0.26350001 0.095766671 0.59500003 1.3847533e-39
-0.26192576 0.095605724 0.59400004 1.3847519e-39
-0.26079431 0.095605724 0.59400004 1.3851121e-39
-0.25922573 0.095444769 0.59300005 1.2936381e-39
-0.25809622 0.095444769 0.59300005 1.2925591e-39
-0.25653335 0.095283814 0.59200001 1.2921976e-39
-0.25497431 0.095122859 0.59100002 1.2929108e-39
-0.25341907 0.094961911 0.59000003 1.0174015e-39
-0.25186765 0.094800957 0.58900005 7.4153772e-40
-0.25031999 0.094640002 0.588 6.4934489e-40
-0.2492 0.094640002 0.588 6.4790856e-40
-0.24808 0.094640002 0.588 5.5714926e-40
-0.24654 0.094479047 0.58700001 4.6423617e-40
-0.2450038 0.094318099 0.58600003 6.4754843e-40
-0.24388762 0.094318099 0.58600003 9.2305492e-40
-0.24235716 0.094157144 0.58500004 9.2341365e-40
-0.24124287 0.094157144 0.58500004 9.2305632e-40
-0.23971811 0.093996197 0.58400005 8.3122362e-40
-0.2390143 0.094157144 0.58500004 8.3122082e-40
-0.23749335 0.093996197 0.58400005 8.3121802e-40
-0.23638098 0.093996197 0.58400005 8.3085929e-40
-0.23486573 0.093835235 0.583 8.3121802e-40
-0.23375525 0.093835235 0.583 8.3085929e-40
-0.23184668 0.093513332 0.58100003 7.3902379e-40
-0.23074001 0.093513332 0.58100003 6.4683096e-40
-0.22963333 0.093513332 0.58100003 6.4683236e-40
-0.22813335 0.093352385 0.58000004 6.4682676e-40
-0.22663717 0.093191437 0.57900006 6.4646242e-40
-0.22514477 0.093030475 0.57800001 6.4646242e-40
-0.22404382 0.093030475 0.57800001 5.5462552e-40
-0.22294284 0.093030475 0.57800001 4.624313e-40
-0.2218419 0.093030475 0.57800001 4.6278863e-40
-0.22074094 0.093030475 0.57800001 4.6279143e-40
-0.21964 0.093030475 0.57800001 4.624355e-40
-0.21816097 0.09286952 0.57700002 4.6242989e-40
-0.21706191 0.09286952 0.57700002 4.6242569e-40
-0.21596286 0.09286952 0.57700002 4.6242569e-40
-0.21486382 0.09286952 0.57700002 4.6278442e-40
-0.2133943 0.09270858 0.57600003 4.6242429e-40
-0.21229716 0.09270858 0.57600003 3.7058879e-40
-0.21120001 0.09270858 0.57600003 3.7059019e-40
-0.21010287 0.09270858 0.57600003 3.7023426e-40
-0.20900571 0.09270858 0.57600003 3.6987413e-40
-0.20790859 0.09270858 0.57600003 3.6987413e-40
-0.20681143 0.09270858 0.57600003 3.6987133e-40
-0.2057143 0.09270858 0.57600003 2.7803443e-40
-0.20461714 0.09270858 0.57600003 2.7803303e-40
-0.20352001 0.09270858 0.57600003 2.776729e-40
-0.20242286 0.09270858 0.57600003 2.776729e-40
-0.20132573 0.09270858 0.57600003 3.6879093e-40
-0.20022857 0.09270858 0.57600003 4.6062502e-40
-0.19913144 0.09270858 0.57600003 4.6062362e-40
-0.1983781 0.09286952 0.57700002 4.6134249e-40
-0.19727905 0.09286952 0.57700002 3.6950839e-40
-0.19584002 0.09270858 0.57600003 2.7731416e-40
-0.19474286 0.09270858 0.57600003 2.776729e-40
-0.19398192 0.09286952 0.57700002 2.7731416e-40
-0.19288287 0.09286952 0.57700002 2.7731416e-40
-0.19178382 0.09286952 0.57700002 2.7731276e-40
-0.19068477 0.09286952 0.57700002 2.7731276e-40
-0.18958572 0.09286952 0.57700002 2.776729e-40
-0.18848668 0.09286952 0.57700002 2.7803163e-40
-0.18738762 0.09286952 0.57700002 2.7803443e-40
-0.18661143 0.093030475 0.57800001 5.5318499e-40
-0.18518953 0.09286952 0.57700002 8.2869148e-40
-0.18409048 0.09286952 0.57700002 6.4537782e-40
-0.1826743 0.09270858 0.57600003 4.6242429e-40
-0.18157715 0.09270858 0.57600003 4.6242569e-40
-0.17985332 0.092386663 0.574 4.6242569e-40
-0.17813715 0.092064768 0.57200003 5.5426119e-40
-0.1767381 0.091903813 0.57100004 6.4646102e-40
-0.17565049 0.091903813 0.57100004 6.4646522e-40
-0.17456287 0.091903813 0.57100004 6.4718269e-40
-0.17226002 0.091260001 0.56700003 6.4718129e-40
-0.17087811 0.091099054 0.56600004 6.4717849e-40
-0.16980001 0.091099054 0.56600004 6.4717568e-40
-0.1684238 0.090938091 0.565 6.4717708e-40
-0.16705143 0.090777144 0.56400001 7.3937412e-40
-0.16597714 0.090777144 0.56400001 8.3121382e-40
-0.16490287 0.090777144 0.56400001 6.4754703e-40
-0.1635381 0.090616189 0.56300002 5.5571013e-40
-0.16246572 0.090616189 0.56300002 7.4081605e-40
-0.16110668 0.090455242 0.56200004 9.2340945e-40
-0.15975145 0.090294287 0.56100005 9.2340945e-40
-0.1584 0.090133332 0.56 9.2305211e-40
-0.15705238 0.089972384 0.55900002 8.3121802e-40
-0.15542954 0.089650482 0.55700004 8.3121522e-40
-0.15409145 0.089489534 0.55600005 7.3973705e-40
-0.15275714 0.089328572 0.55500001 6.4754563e-40
-0.1517 0.089328572 0.55500001 7.3866646e-40
-0.15037143 0.089167625 0.55400002 9.2341365e-40
-0.14931621 0.089167625 0.55400002 9.2341365e-40
-0.14799334 0.089006677 0.55300003 9.2341365e-40
-0.14667429 0.088845722 0.55200005 7.3938392e-40
-0.14535904 0.088684767 0.551 6.4790996e-40
-0.14430952 0.088684767 0.551 8.3302009e-40
-0.14300001 0.088523813 0.55000001 1.0166897e-39
-0.14195238 0.088523813 0.55000001 8.3301869e-40
-0.14039238 0.08820191 0.54800004 6.4862743e-40
-0.13934858 0.08820191 0.54800004 7.3974266e-40
-0.13830477 0.08820191 0.54800004 9.2341365e-40
-0.13726096 0.08820191 0.54800004 9.2341505e-40
-0.13621716 0.08820191 0.54800004 9.2341505e-40
-0.13517334 0.08820191 0.54800004 7.4046152e-40
-0.13412954 0.08820191 0.54800004 6.4898616e-40
-0.13284287 0.088040963 0.54700005 6.4970503e-40
-0.13180096 0.088040963 0.54700005 6.4970363e-40
-0.13052 0.08788 0.546 6.4970363e-40
-0.12924285 0.087719053 0.54500002 7.4153912e-40
-0.12820476 0.087719053 0.54500002 7.4189926e-40
-0.12716667 0.087719053 0.54500002 8.3373335e-40
-0.12589714 0.087558098 0.54400003 1.0174029e-39
-0.12486096 0.087558098 0.54400003 1.2929108e-39
-0.12382477 0.087558098 0.54400003 9.2557165e-40
-0.12256286 0.087397151 0.54300004 6.5006656e-40
-0.12152858 0.087397151 0.54300004 7.4262092e-40
-0.1204943 0.087397151 0.54300004 9.2629472e-40
-0.11924001 0.087236196 0.54200006 1.0184917e-39
-0.11820763 0.087236196 0.54200006 1.1103314e-39
-0.11717525 0.087236196 0.54200006 1.1103371e-39
-0.11614287 0.087236196 0.54200006 1.11033e-39
-0.11511049 0.087236196 0.54200006 9.2701218e-40
-0.1140781 0.087236196 0.54200006 8.3554102e-40
-0.11304572 0.087236196 0.54200006 1.1117706e-39
-0.11201335 0.087236196 0.54200006 1.4794727e-39
-0.11098097 0.087236196 0.54200006 1.2965192e-39
-0.10994858 0.087236196 0.54200006 1.2050452e-39
-0.1089162 0.087236196 0.54200006 1.2972422e-39
-0.10788383 0.087236196 0.54200006 1.4809146e-39
-0.10704858 0.087397151 0.54300004 1.4819908e-39
-0.10581905 0.087236196 0.54200006 1.5738263e-39
-0.10498001 0.087397151 0.54300004 1.6660206e-39
-0.10413715 0.087558098 0.54400003 1.7582176e-39
-0.10310096 0.087558098 0.54400003 1.7589379e-39
-0.10225239 0.087719053 0.54500002 1.8504132e-39
-0.10102858 0.087558098 0.54400003 1.851488e-39
-0.10017619 0.087719053 0.54500002 1.9429662e-39
-0.099138096 0.087719053 0.54500002 2.1262812e-39
-0.098279998 0.08788 0.546 2.3099522e-39
-0.097239994 0.08788 0.546 2.0333696e-39
-0.096376196 0.088040963 0.54700005 1.8504146e-39
-0.095334291 0.088040963 0.54700005 1.7582204e-39
-0.094464764 0.08820191 0.54800004 1.7585777e-39
-0.09342096 0.08820191 0.54800004 1.8507692e-39
-0.092377149 0.08820191 0.54800004 2.0333639e-39
