# .PCD v0.7 - Point Cloud Data file format
VERSION 0.7
FIELDS x y z rgb
SIZE 4 4 4 4
TYPE F F F F
COUNT 1 1 1 1
WIDTH 1009
HEIGHT 1
VIEWPOINT 0 0 0 1 0 0 0
POINTS 1009
DATA ascii
-0.071940005 0.24882001 0.69300002 2.7601068e-39
-0.070823811 0.24953811 0.69500005 2.3934836e-39
-0.069500007 0.24953811 0.69500005 2.1179715e-39
-0.068372384 0.25025621 0.69700003 1.8424595e-39
-0.067044765 0.25025621 0.69700003 1.5658796e-39
-0.065717146 0.25025621 0.69700003 1.4726133e-39
-0.059904762 0.26569524 0.74000001 1.4791056e-39
-0.058653336 0.26641333 0.74200004 1.663501e-39
-0.057471432 0.26749051 0.74500006 1.9408054e-39
-0.056202862 0.26820859 0.74700004 2.3106627e-39
-0.054853335 0.26856762 0.74800003 2.7727254e-39
-0.053357143 0.26820859 0.74700004 2.5905034e-39
-0.051934287 0.26820859 0.74700004 2.4965043e-39
-0.050579049 0.26856762 0.74800003 2.0355233e-39
-0.049285717 0.26928574 0.75000006 1.5741907e-39
-0.047857147 0.26928574 0.75000006 1.5720355e-39
-0.046614286 0.27036285 0.75300002 1.66495e-39
-0.045360003 0.27144003 0.75600004 1.7578659e-39
-0.043919999 0.27144003 0.75600004 1.9433375e-39
-0.04259238 0.27215809 0.75800002 1.9454969e-39
-0.041148573 0.27215809 0.75800002 1.9433361e-39
-0.039861906 0.27323523 0.76100004 1.7600155e-39
-0.038614288 0.27467147 0.76500005 1.5756326e-39
-0.037254285 0.27538952 0.76700002 1.5752795e-39
-0.035793334 0.27538952 0.76700002 1.6660346e-39
-0.034377143 0.27574858 0.76800001 1.5731187e-39
-0.033 0.27646667 0.77000004 1.4827195e-39
-0.031615239 0.27718475 0.77200001 1.4845132e-39
-0.030183813 0.27754381 0.77300006 1.4841572e-39
-0.028785717 0.27826193 0.77500004 1.7596651e-39
-0.027309524 0.27826193 0.77500004 2.035173e-39
-0.025833335 0.27826193 0.77500004 2.1273673e-39
-0.024357144 0.27826193 0.77500004 2.3110396e-39
-0.022880953 0.27826193 0.77500004 2.219207e-39
-0.02146 0.27898002 0.77700001 2.2184965e-39
-0.020057144 0.28005713 0.78000003 2.7691591e-39
-0.018571429 0.28005713 0.78000003 3.4141628e-39
-0.017085714 0.28005713 0.78000003 3.6918245e-39
-0.0022714285 0.28544286 0.79500002 4.2479158e-39
-0.00075714284 0.28544286 0.79500002 4.7142917e-39
0.23723811 0.3375048 0.94000006 3.6842519e-40
0.23902857 0.3375048 0.94000006 2.7658969e-40
0.24005048 0.33642763 0.93700004 3.6878392e-40
0.24183525 0.33642763 0.93700004 4.6133968e-40
0.24310002 0.33570954 0.93500006 6.4573235e-40
0.24488097 0.33570954 0.93500006 9.2232484e-40
0.24587047 0.3346324 0.93200004 1.3825883e-39
0.24764572 0.3346324 0.93200004 1.9361166e-39
0.24942094 0.3346324 0.93200004 3.0438865e-39
0.25065717 0.33391431 0.93000007 4.1509459e-39
-0.4520705 0.28226477 0.78200006 2.7623376e-40
-0.45058098 0.28226477 0.78200006 2.7658969e-40
-0.44909146 0.28226477 0.78200006 2.7622816e-40
-0.44760191 0.28226477 0.78200006 3.6806505e-40
-0.4649381 0.29417619 0.81500006 2.7659109e-40
-0.46338573 0.29417619 0.81500006 2.7658829e-40
-0.31460285 0.26674381 0.73900002 2.7622816e-40
-0.31192383 0.26566097 0.73600006 3.6806365e-40
-0.30967811 0.26493904 0.73400003 3.6806365e-40
-0.30827999 0.26493904 0.73400003 2.7622816e-40
-0.30604574 0.26421714 0.73200005 3.6842239e-40
-0.30465147 0.26421714 0.73200005 4.6025788e-40
-0.30284286 0.2638562 0.73100001 3.6878252e-40
-0.30145049 0.2638562 0.73100001 3.6877972e-40
-0.29923713 0.2631343 0.72900003 2.7658409e-40
-0.29784858 0.2631343 0.72900003 2.7658829e-40
-0.29646 0.2631343 0.72900003 3.6806926e-40
-0.29466668 0.26277333 0.72800004 4.6134669e-40
-0.29328004 0.26277333 0.72800004 6.4753722e-40
-0.29109141 0.2620514 0.72600001 9.2773525e-40
-0.28970855 0.2620514 0.72600001 1.2965402e-39
-0.28832573 0.2620514 0.72600001 1.7557051e-39
-0.2865476 0.26169047 0.72500002 1.387633e-39
-0.28398669 0.26060766 0.72200006 1.0195722e-39
-0.28182858 0.25988573 0.72000003 9.2666046e-40
-0.27773049 0.25735906 0.71300006 8.3266836e-40
-0.27520952 0.25627622 0.71000004 8.3266556e-40
-0.27385715 0.25627622 0.71000004 9.2378219e-40
-0.27173716 0.25555429 0.708 6.4791557e-40
-0.27038857 0.25555429 0.708 4.6424458e-40
-0.26866001 0.25519332 0.70700002 4.6460471e-40
-0.2676914 0.25555429 0.708 5.5679894e-40
-0.26634285 0.25555429 0.708 5.5680034e-40
-0.26499426 0.25555429 0.708 5.5715907e-40
-0.2643905 0.25627622 0.71000004 5.5716047e-40
-0.26340857 0.25663716 0.71100003 5.5716047e-40
-0.26205429 0.25663716 0.71100003 6.4899737e-40
-0.26143336 0.25735906 0.71300006 7.41193e-40
-0.26007524 0.25735906 0.71300006 8.3338863e-40
-0.25799143 0.25663716 0.71100003 9.2593739e-40
-0.25735906 0.25735906 0.71300006 9.2593318e-40
-0.25600097 0.25735906 0.71300006 9.2629612e-40
-0.25464287 0.25735906 0.71300006 1.0177785e-39
-0.25328478 0.25735906 0.71300006 1.2010865e-39
-0.25192666 0.25735906 0.71300006 1.2017998e-39
-0.25056857 0.25735906 0.71300006 1.29435e-39
-0.24921049 0.25735906 0.71300006 1.1099601e-39
-0.24715716 0.25663716 0.71100003 9.2449265e-40
-0.24545716 0.25627622 0.71000004 8.3265435e-40
-0.24238573 0.25447142 0.70500004 7.3866226e-40
-0.24035904 0.25374952 0.70300001 6.4646522e-40
-0.23834002 0.25302762 0.70100003 6.4610369e-40
-0.23666668 0.25266668 0.70000005 4.6207256e-40
-0.23432477 0.25158384 0.69700003 3.6987693e-40
-0.23199429 0.25050095 0.69400001 3.695168e-40
-0.22934286 0.24905714 0.69000006 3.6914966e-40
-0.22703715 0.24797429 0.68700004 3.6914125e-40
-0.22540002 0.24761336 0.68600005 3.6950419e-40
-0.22343999 0.24689142 0.68400002 2.7731416e-40
-0.22213714 0.24689142 0.68400002 2.7731977e-40
-0.22083429 0.24689142 0.68400002 2.7696804e-40
-0.21953143 0.24689142 0.68400002 3.6879653e-40
-0.21822856 0.24689142 0.68400002 2.7695543e-40
-0.21660858 0.2465305 0.68300003 2.7731416e-40
-0.22192763 0.25411049 0.70400006 2.7731416e-40
-0.22058667 0.25411049 0.70400006 2.7695403e-40
-0.21924573 0.25411049 0.70400006 2.765939e-40
-0.21790478 0.25411049 0.70400006 2.7623376e-40
-0.21656382 0.25411049 0.70400006 2.7623376e-40
-0.21522288 0.25411049 0.70400006 2.765967e-40
-0.21418573 0.25447142 0.70500004 2.766009e-40
-0.21284287 0.25447142 0.70500004 2.765967e-40
-0.2121 0.25519332 0.70700002 2.765939e-40
-0.21075334 0.25519332 0.70700002 3.6842799e-40
-0.20970286 0.25555429 0.708 2.7659249e-40
-0.20894288 0.25627622 0.71000004 2.7658969e-40
-0.20759049 0.25627622 0.71000004 2.7658689e-40
-0.20623811 0.25627622 0.71000004 2.7658689e-40
-0.20488572 0.25627622 0.71000004 2.7658829e-40
-0.20353334 0.25627622 0.71000004 3.6878252e-40
-0.20218095 0.25627622 0.71000004 3.6878252e-40
-0.20082858 0.25627622 0.71000004 4.6061802e-40
-0.1994762 0.25627622 0.71000004 5.5281365e-40
-0.19756572 0.25555429 0.708 6.4464774e-40
-0.19621713 0.25555429 0.708 7.361245e-40
-0.16913524 0.22812192 0.63200003 1.1034707e-39
-0.16766572 0.22776097 0.63100004 8.2831733e-40
-0.16593619 0.22703905 0.62900001 6.453638e-40
-0.1647381 0.22703905 0.62900001 7.3684057e-40
-0.16328 0.2266781 0.62800002 9.2087029e-40
-0.16182572 0.22631715 0.62700003 9.2015283e-40
-0.16037525 0.2259562 0.62600005 9.197955e-40
-0.15892857 0.22559524 0.625 9.197983e-40
-0.15773809 0.22559524 0.625 9.197983e-40
-0.15629715 0.22523428 0.62400001 9.197983e-40
-0.15510857 0.22523428 0.62400001 9.197955e-40
-0.15391999 0.22523428 0.62400001 9.2051156e-40
-0.15248667 0.22487333 0.62300003 1.0127058e-39
-0.1513 0.22487333 0.62300003 1.0127058e-39
-0.14987239 0.2245124 0.62200004 1.0127058e-39
-0.14868763 0.2245124 0.62200004 1.0127072e-39
-0.14750285 0.2245124 0.62200004 1.0130659e-39
-0.14584762 0.22379047 0.62 1.0130659e-39
-0.14443333 0.22342953 0.61900002 1.0130659e-39
-0.14325429 0.22342953 0.61900002 1.1049014e-39
-0.14207524 0.22342953 0.61900002 1.1970956e-39
-0.1408962 0.22342953 0.61900002 1.1970956e-39
-0.13971715 0.22342953 0.61900002 1.2889311e-39
-0.13853811 0.22342953 0.61900002 1.3804093e-39
-0.13735905 0.22342953 0.61900002 1.5637216e-39
-0.1364 0.22379047 0.62 1.8392281e-39
-0.13521904 0.22379047 0.62 2.1150933e-39
-0.1338219 0.22342953 0.61900002 1.8395882e-39
-0.13264287 0.22342953 0.61900002 1.6559172e-39
-0.13146381 0.22342953 0.61900002 1.6559172e-39
-0.13028477 0.22342953 0.61900002 1.7477527e-39
-0.12931429 0.22379047 0.62 1.7477541e-39
-0.12813334 0.22379047 0.62 1.7481128e-39
-0.12695238 0.22379047 0.62 2.0236193e-39
-0.12577142 0.22379047 0.62 2.2987643e-39
-0.12459048 0.22379047 0.62 2.2072847e-39
-0.12340952 0.22379047 0.62 2.115452e-39
-0.12222857 0.22379047 0.62 2.1154548e-39
-0.12104762 0.22379047 0.62 2.0239766e-39
-0.12025334 0.2245124 0.62200004 2.0236179e-39
-0.11906858 0.2245124 0.62200004 2.1147359e-39
-0.11750476 0.22379047 0.62 2.023978e-39
-0.11669905 0.2245124 0.62200004 2.0243382e-39
-0.11570001 0.22487333 0.62300003 2.1158163e-39
-0.11451334 0.22487333 0.62300003 2.1158135e-39
-0.11350857 0.22523428 0.62400001 2.2090826e-39
-0.11232001 0.22523428 0.62400001 2.3009209e-39
-0.11113143 0.22523428 0.62400001 2.3931193e-39
-0.11011904 0.22559524 0.625 2.4838772e-39
-0.10892857 0.22559524 0.625 2.668623e-39
-0.10773809 0.22559524 0.625 2.8530114e-39
-0.1067181 0.2259562 0.62600005 2.8530114e-39
-0.10552572 0.2259562 0.62600005 2.9452057e-39
-0.10433334 0.2259562 0.62600005 2.8533716e-39
-0.10330572 0.22631715 0.62700003 2.7615361e-39
-0.10227428 0.2266781 0.62800002 2.9452071e-39
-0.1010781 0.2266781 0.62800002 3.2210723e-39
-0.10004095 0.22703905 0.62900001 3.2203548e-39
-0.098842859 0.22703905 0.62900001 3.2207136e-39
-0.097955242 0.22776097 0.63100004 3.1288781e-39
-0.096753336 0.22776097 0.63100004 3.0374013e-39
-0.095702864 0.22812192 0.63200003 3.0374013e-39
-0.095097147 0.22956574 0.63600004 3.0374013e-39
-0.094180949 0.23028761 0.63800001 3.0366838e-39
-0.093111433 0.23064858 0.63900006 3.1281592e-39
-0.091894291 0.23064858 0.63900006 3.0366824e-39
-0.090819053 0.23100953 0.64000005 2.9448497e-39
-0.089740001 0.23137048 0.64100003 2.8526583e-39
-0.088657148 0.23173143 0.64200002 2.7601054e-39
-0.087842867 0.2328143 0.64500004 2.5767931e-39
-0.087285712 0.23461905 0.65000004 2.3931207e-39
-0.086180001 0.23498 0.65100002 2.3931207e-39
-0.085070483 0.23534095 0.65200001 2.3924018e-39
-0.084214285 0.23642382 0.65500003 2.1172527e-39
-0.083220005 0.23714572 0.65700001 1.9335817e-39
-0.082093336 0.23750669 0.65800005 2.0250584e-39
-0.081331439 0.23895049 0.66200006 2.2087294e-39
-0.080191433 0.23931144 0.66300005 2.0250599e-39
-0.079285711 0.24039428 0.66600001 1.933223e-39
-0.078134291 0.24075525 0.66700006 2.0250584e-39
-0.077324763 0.24219905 0.671 2.1172555e-39
-0.076386668 0.24328192 0.67400002 2.1172597e-39
-0.075214282 0.24364285 0.67500001 2.2090966e-39
-0.074038103 0.24400382 0.67600006 2.1176226e-39
-0.073180959 0.24544762 0.68000001 2.1179771e-39
-0.072097145 0.24616955 0.68200004 2.4845975e-39
-0.072043814 0.25050095 0.69400001 2.851938e-39
-0.070823811 0.25086194 0.69500005 2.3927606e-39
-0.069500007 0.25086194 0.69500005 2.0257731e-39
-0.068372384 0.25158384 0.69700003 1.4747573e-39
-0.067044765 0.25158384 0.69700003 1.0137932e-39
-0.065717146 0.25158384 0.69700003 1.105277e-39
-0.060147621 0.26818764 0.74300003 1.018496e-39
-0.058732383 0.26818764 0.74300003 1.3865638e-39
-0.057471432 0.26890954 0.74500006 1.7571372e-39
-0.056202862 0.26963145 0.74700004 2.402501e-39
-0.054780003 0.26963145 0.74700004 3.1415066e-39
-0.053214289 0.26890954 0.74500006 2.5890755e-39
-0.051934287 0.26963145 0.74700004 2.0369667e-39
-0.050579049 0.26999238 0.74800003 1.3890763e-39
-0.049285717 0.27071431 0.75000006 8.3591237e-40
-0.047857147 0.27071431 0.75000006 1.2046921e-39
-0.046552382 0.27143621 0.75200003 1.6638724e-39
-0.045300003 0.27251905 0.75500005 1.9429704e-39
-0.043861907 0.27251905 0.75500005 2.3106809e-39
-0.042480003 0.27288002 0.75600004 1.9429914e-39
-0.041148573 0.27360192 0.75800002 1.5756368e-39
-0.039861906 0.27468476 0.76100004 1.3901595e-39
-0.038513333 0.27540666 0.76300001 1.2050564e-39
-0.037254285 0.27685046 0.76700002 1.296536e-39
-0.035793334 0.27685046 0.76700002 1.3883687e-39
-0.034377143 0.27721143 0.76800001 1.2036201e-39
-0.033 0.27793336 0.77000004 1.110707e-39
-0.031615239 0.27865526 0.77200001 1.2958129e-39
-0.030183813 0.2790162 0.77300006 1.3894449e-39
-0.028785717 0.2797381 0.77500004 1.5727613e-39
-0.027309524 0.2797381 0.77500004 1.8479091e-39
-0.025833335 0.2797381 0.77500004 1.9408208e-39
-0.024357144 0.2797381 0.77500004 2.0337339e-39
-0.022940001 0.28046 0.77700001 2.0340954e-39
-0.021515239 0.28118193 0.77900004 2.1262953e-39
-0.020057144 0.28154287 0.78000003 2.5858371e-39
-0.018571429 0.28154287 0.78000003 3.0453789e-39
-0.017085714 0.28154287 0.78000003 3.4152376e-39
-0.01564 0.28226477 0.78200006 3.7847362e-39
-0.014150478 0.28226477 0.78200006 3.9712812e-39
-0.012660953 0.28226477 0.78200006 4.2467891e-39
-0.011171429 0.28226477 0.78200006 4.2471507e-39
-0.0096819047 0.28226477 0.78200006 4.3396966e-39
-0.0081923818 0.28226477 0.78200006 4.0634657e-39
-0.0067028576 0.28226477 0.78200006 3.7876033e-39
-0.0037523813 0.28443047 0.78800005 3.9723518e-39
-0.0022657143 0.28623527 0.79300004 4.2482157e-39
-0.00075523811 0.28623527 0.79300004 4.6141788e-39
0.00075523811 0.28623527 0.79300004 6.2773183e-39
0.0022714285 0.28695714 0.79500002 8.0369077e-39
0.0037857143 0.28695714 0.79500002 8.7716001e-39
0.23774286 0.34001714 0.94200003 3.6842239e-40
0.23902857 0.33929524 0.94000006 2.7658689e-40
0.24005048 0.3382124 0.93700004 3.6842379e-40
0.24131906 0.3374905 0.93500006 4.6062222e-40
0.24310002 0.3374905 0.93500006 6.4501488e-40
0.24488097 0.3374905 0.93500006 8.2976908e-40
0.24587047 0.33640763 0.93200004 1.2903899e-39
0.24764572 0.33640763 0.93200004 1.8442811e-39
0.24942094 0.33640763 0.93200004 2.767308e-39
0.25065717 0.33568573 0.93000007 3.7821704e-39
0.25242859 0.33568573 0.93000007 4.3353442e-39
-0.45091429 0.2830286 0.78000003 2.7623236e-40
-0.45058098 0.28375429 0.78200006 2.7622956e-40
-0.44909146 0.28375429 0.78200006 2.7622676e-40
-0.31107619 0.26633716 0.73400003 2.7658689e-40
-0.30883431 0.26561144 0.73200005 2.7658689e-40
-0.30744001 0.26561144 0.73200005 2.7658689e-40
-0.30604574 0.26561144 0.73200005 2.7658689e-40
-0.30465147 0.26561144 0.73200005 2.7658689e-40
-0.30284286 0.2652486 0.73100001 2.7694702e-40
-0.30062571 0.26452288 0.72900003 3.6878112e-40
-0.29923713 0.26452288 0.72900003 2.7694422e-40
-0.29784858 0.26452288 0.72900003 2.7659109e-40
-0.29605335 0.26416001 0.72800004 3.6807346e-40
-0.29466668 0.26416001 0.72800004 4.6098936e-40
-0.29247427 0.26343429 0.72600001 6.4789455e-40
-0.29069048 0.26307142 0.72500002 8.3553402e-40
-0.28930953 0.26307142 0.72500002 1.2046921e-39
-0.28792858 0.26307142 0.72500002 1.5723872e-39
-0.28575715 0.26234573 0.72300005 1.2975912e-39
-0.28438002 0.26234573 0.72300005 1.1117692e-39
-0.28300288 0.26234573 0.72300005 9.2773946e-40
-0.27695143 0.25799143 0.71100003 8.330299e-40
-0.27404666 0.25654 0.70700002 8.3266556e-40
-0.27308571 0.25690287 0.708 9.2414232e-40
-0.27135336 0.25654 0.70700002 7.401126e-40
-0.27000669 0.25654 0.70700002 5.5680034e-40
-0.26790002 0.25581428 0.70500004 5.5716047e-40
-0.26655716 0.25581428 0.70500004 6.4899597e-40
-0.26596668 0.25654 0.70700002 6.4899737e-40
-0.26462001 0.25654 0.70700002 6.493561e-40
-0.26364571 0.25690287 0.708 6.5007497e-40
-0.26229712 0.25690287 0.708 6.5007637e-40
-0.26168573 0.25762859 0.71000004 8.341061e-40
-0.26033333 0.25762859 0.71000004 1.0177771e-39
-0.25898096 0.25762859 0.71000004 1.0181358e-39
-0.25799143 0.25799143 0.71100003 1.0184932e-39
-0.25663716 0.25799143 0.71100003 1.0192106e-39
-0.25528285 0.25799143 0.71100003 1.0184946e-39
-0.25392857 0.25799143 0.71100003 1.2018082e-39
-0.25257429 0.25799143 0.71100003 1.4780266e-39
-0.25122002 0.25799143 0.71100003 1.2950688e-39
-0.24986573 0.25799143 0.71100003 1.1099615e-39
-0.24851143 0.25799143 0.71100003 1.1096014e-39
-0.24680954 0.25762859 0.71000004 1.1081636e-39
-0.24372858 0.25581428 0.70500004 1.0166855e-39
-0.24238573 0.25581428 0.70500004 9.2305352e-40
-0.24035904 0.2550886 0.70300001 8.3085648e-40
-0.23834002 0.25436288 0.70100003 8.3049495e-40
-0.23666668 0.25400001 0.70000005 6.4646242e-40
-0.23432477 0.25291142 0.69700003 4.6207116e-40
-0.23232859 0.25218573 0.69500005 3.6987413e-40
-0.22934286 0.25037143 0.69000006 3.6950979e-40
-0.22703715 0.24928287 0.68700004 2.7730996e-40
-0.22540002 0.24892002 0.68600005 2.7731136e-40
-0.22343999 0.24819429 0.68400002 2.7731416e-40
-0.22213714 0.24819429 0.68400002 2.7731697e-40
-0.22051142 0.24783145 0.68300003 2.7731977e-40
-0.21921048 0.24783145 0.68300003 2.7731697e-40
-0.21790953 0.24783145 0.68300003 2.7731416e-40
-0.21660858 0.24783145 0.68300003 2.7731416e-40
-0.22192763 0.25545144 0.70400006 2.7731416e-40
-0.22058667 0.25545144 0.70400006 3.6878953e-40
-0.21924573 0.25545144 0.70400006 2.765939e-40
-0.21790478 0.25545144 0.70400006 2.7623236e-40
-0.21656382 0.25545144 0.70400006 2.7623096e-40
-0.21522288 0.25545144 0.70400006 2.7659249e-40
-0.21418573 0.25581428 0.70500004 1.847612e-40
-0.21284287 0.25581428 0.70500004 1.847598e-40
-0.2115 0.25581428 0.70500004 2.765939e-40
-0.21075334 0.25654 0.70700002 3.6842799e-40
-0.20940666 0.25654 0.70700002 2.7623376e-40
-0.20806001 0.25654 0.70700002 2.7659109e-40
-0.20700571 0.25690287 0.708 1.8511293e-40
-0.20565714 0.25690287 0.708 1.8475279e-40
-0.20488572 0.25762859 0.71000004 2.7658829e-40
-0.20353334 0.25762859 0.71000004 3.6878252e-40
-0.20218095 0.25762859 0.71000004 3.6878252e-40
-0.20082858 0.25762859 0.71000004 4.6061802e-40
-0.1994762 0.25762859 0.71000004 6.4464914e-40
-0.19812383 0.25762859 0.71000004 8.2796e-40
-0.19677144 0.25762859 0.71000004 8.279586e-40
-0.16913524 0.22932571 0.63200003 9.197969e-40
-0.16793142 0.22932571 0.63200003 6.4500507e-40
-0.16672763 0.22932571 0.63200003 4.6169281e-40
-0.16526191 0.22896287 0.63100004 6.4464634e-40
-0.16406001 0.22896287 0.63100004 9.2015283e-40
-0.1620838 0.22787429 0.62800002 9.2015283e-40
-0.16063143 0.22751144 0.62700003 9.197955e-40
-0.15918286 0.22714858 0.62600005 9.197969e-40
-0.15773809 0.2267857 0.625 9.197969e-40
-0.15629715 0.22642286 0.62400001 9.197983e-40
-0.15510857 0.22642286 0.62400001 9.197955e-40
-0.15367334 0.22606 0.62300003 9.2015283e-40
-0.15248667 0.22606 0.62300003 1.0123471e-39
-0.15105715 0.22569714 0.62200004 1.0127058e-39
-0.14987239 0.22569714 0.62200004 1.0127058e-39
-0.14868763 0.22569714 0.62200004 1.0127058e-39
-0.14702858 0.22497143 0.62 1.0127072e-39
-0.14584762 0.22497143 0.62 9.2087309e-40
-0.14443333 0.22460857 0.61900002 9.2051436e-40
-0.14325429 0.22460857 0.61900002 1.0123513e-39
-0.14207524 0.22460857 0.61900002 1.1049028e-39
-0.1408962 0.22460857 0.61900002 1.1967369e-39
-0.13971715 0.22460857 0.61900002 1.2889311e-39
-0.13853811 0.22460857 0.61900002 1.2892899e-39
-0.13735905 0.22460857 0.61900002 1.2889311e-39
-0.13618 0.22460857 0.61900002 1.564439e-39
-0.13500096 0.22460857 0.61900002 1.8392281e-39
-0.1338219 0.22460857 0.61900002 1.563723e-39
-0.13264287 0.22460857 0.61900002 1.3804093e-39
-0.13146381 0.22460857 0.61900002 1.6566319e-39
-0.13028477 0.22460857 0.61900002 1.9314223e-39
-0.12910572 0.22460857 0.61900002 1.9314251e-39
-0.12792666 0.22460857 0.61900002 1.9317838e-39
-0.12674762 0.22460857 0.61900002 2.2072903e-39
-0.12556857 0.22460857 0.61900002 2.4827926e-39
-0.12438953 0.22460857 0.61900002 2.2991188e-39
-0.12340952 0.22497143 0.62 2.115452e-39
-0.12222857 0.22497143 0.62 2.0232634e-39
-0.12104762 0.22497143 0.62 1.9314251e-39
-0.12025334 0.22569714 0.62200004 1.9314237e-39
-0.11906858 0.22569714 0.62200004 1.9314237e-39
-0.11750476 0.22497143 0.62 2.0236179e-39
-0.11669905 0.22569714 0.62200004 2.2072903e-39
-0.11570001 0.22606 0.62300003 2.0239794e-39
-0.11451334 0.22606 0.62300003 1.8403085e-39
-0.11350857 0.22642286 0.62400001 1.8421021e-39
-0.11232001 0.22642286 0.62400001 1.933939e-39
-0.11113143 0.22642286 0.62400001 2.0257759e-39
-0.11011904 0.2267857 0.625 2.1165338e-39
-0.10892857 0.2267857 0.625 2.392755e-39
-0.10791048 0.22714858 0.62600005 2.6686202e-39
-0.1067181 0.22714858 0.62600005 2.7608158e-39
-0.10552572 0.22714858 0.62600005 2.8526513e-39
-0.10433334 0.22714858 0.62600005 2.577505e-39
-0.10314097 0.22714858 0.62600005 2.3938326e-39
-0.10211143 0.22751144 0.62700003 2.6704138e-39
-0.1010781 0.22787429 0.62800002 2.9452043e-39
-0.09988191 0.22787429 0.62800002 2.9448469e-39
-0.098842859 0.22823714 0.62900001 2.9448469e-39
-0.097644761 0.22823714 0.62900001 2.9452057e-39
-0.096753336 0.22896287 0.63100004 2.9452057e-39
-0.095702864 0.22932571 0.63200003 2.9452057e-39
-0.094947629 0.2304143 0.63500005 2.9448469e-39
-0.094180949 0.23150286 0.63800001 2.8530114e-39
-0.093111433 0.23186572 0.63900006 2.8530114e-39
-0.091894291 0.23186572 0.63900006 2.8530114e-39
-0.090819053 0.23222858 0.64000005 2.8526541e-39
-0.089879997 0.23295429 0.64200002 2.7604627e-39
-0.088933334 0.23368001 0.64400005 2.7597452e-39
-0.087842867 0.23404287 0.64500004 2.3938382e-39
-0.086882859 0.23476857 0.64700001 2.1183303e-39
-0.085782856 0.23513143 0.648 2.1183303e-39
-0.084940001 0.23622 0.65100002 2.1165366e-39
-0.084214285 0.23767143 0.65500003 1.9335845e-39
-0.083220005 0.23839714 0.65700001 1.841749e-39
-0.082093336 0.23876001 0.65800005 1.8421077e-39
-0.081208572 0.23984857 0.66100001 1.9339418e-39
-0.080191433 0.2405743 0.66300005 1.9339404e-39
-0.079285711 0.24166286 0.66600001 1.9335845e-39
-0.078134291 0.24202572 0.66700006 2.1172583e-39
-0.077209525 0.24311429 0.67000002 2.3927648e-39
-0.076159999 0.24384001 0.67200005 2.3920459e-39
-0.075102858 0.24456571 0.67400002 2.4842415e-39
-0.073928572 0.24492858 0.67500001 2.3002118e-39
-0.073180959 0.24674287 0.68000001 2.1172569e-39
-0.073260002 0.25146002 0.69300002 2.4849562e-39
-0.072043814 0.25182286 0.69400001 2.9437735e-39
-0.070823811 0.25218573 0.69500005 2.3927592e-39
-0.069700003 0.25291142 0.69700003 1.9335789e-39
-0.068372384 0.25291142 0.69700003 1.1988907e-39
-0.067044765 0.25291142 0.69700003 5.5497585e-40
-0.061562862 0.26960286 0.74300003 8.3338022e-40
-0.060147621 0.26960286 0.74300003 6.5079384e-40
-0.058890481 0.27032861 0.74500006 1.1099811e-39
-0.057625718 0.2710543 0.74700004 1.6656604e-39
-0.056202862 0.2710543 0.74700004 2.5865307e-39
-0.054853335 0.27141714 0.74800003 3.50525e-39
-0.053357143 0.2710543 0.74700004 2.4954239e-39
-0.052003808 0.27141714 0.74800003 1.5741907e-39
-0.050714288 0.27214289 0.75000006 8.3483477e-40
-0.049285717 0.27214289 0.75000006 1.9378416e-40
-0.047857147 0.27214289 0.75000006 9.2954713e-40
-0.046552382 0.2728686 0.75200003 1.6663849e-39
-0.045180004 0.27323142 0.75300002 2.1284336e-39
-0.043861907 0.27395716 0.75500005 2.6776586e-39
-0.042480003 0.27432001 0.75600004 1.9429788e-39
-0.041148573 0.27504572 0.75800002 1.2061256e-39
-0.039861906 0.27613428 0.76100004 1.0195665e-39
-0.038513333 0.27686 0.76300001 8.3662423e-40
-0.037254285 0.27831143 0.76700002 9.291884e-40
-0.035793334 0.27831143 0.76700002 1.1128552e-39
-0.034377143 0.27867427 0.76800001 9.2774506e-40
-0.033 0.27940002 0.77000004 8.362711e-40
-0.031615239 0.28012574 0.77200001 1.1121405e-39
-0.030183813 0.28048861 0.77300006 1.3890847e-39
-0.028785717 0.2812143 0.77500004 1.4787721e-39
-0.027309524 0.2812143 0.77500004 1.6645968e-39
-0.025833335 0.2812143 0.77500004 1.7571512e-39
-0.024357144 0.2812143 0.77500004 1.8493482e-39
-0.022940001 0.28194001 0.77700001 1.941904e-39
-0.02146 0.28194001 0.77700001 2.0348185e-39
-0.020057144 0.2830286 0.78000003 2.3110467e-39
-0.018571429 0.2830286 0.78000003 2.6791117e-39
-0.017129526 0.28375429 0.78200006 3.1390137e-39
-0.01564 0.28375429 0.78200006 3.6014225e-39
-0.014150478 0.28375429 0.78200006 3.78689e-39
-0.012660953 0.28375429 0.78200006 3.9705624e-39
-0.011171429 0.28375429 0.78200006 4.0638342e-39
-0.0096819047 0.28375429 0.78200006 4.247501e-39
-0.0081923818 0.28375429 0.78200006 4.2478555e-39
-0.0067371433 0.28520572 0.78600001 4.2474968e-39
-0.0052399999 0.28520572 0.78600001 4.1556613e-39
-0.0037523813 0.28593144 0.78800005 4.0641859e-39
-0.0022600002 0.28702 0.79100001 4.3404127e-39
-0.00075333333 0.28702 0.79100001 4.6130773e-39
0.00075523811 0.28774574 0.79300004 4.9865458e-39
0.0022714285 0.28847143 0.79500002 5.3567647e-39
0.0037857143 0.28847143 0.79500002 6.6453399e-39
0.0053133336 0.28919715 0.79700005 7.9349913e-39
0.006831429 0.28919715 0.79700005 8.8573021e-39
0.23795238 0.34471428 0.95000005 3.6842379e-40
0.23850001 0.34290001 0.94500005 2.7658689e-40
0.24030001 0.34290001 0.94500005 2.7658689e-40
0.24081907 0.34108573 0.94000006 3.6842098e-40
0.24183525 0.33999714 0.93700004 4.6026209e-40
0.24310002 0.33927143 0.93500006 5.5281925e-40
0.24488097 0.33927143 0.93500006 7.3793218e-40
0.24587047 0.33818287 0.93200004 1.1985516e-39
0.24764572 0.33818287 0.93200004 1.7517268e-39
0.24942094 0.33818287 0.93200004 2.5825608e-39
0.25065717 0.33745715 0.93000007 3.4137508e-39
0.2516143 0.33636859 0.92700005 4.0598349e-39
-0.45877999 0.28852665 0.79100001 2.7623096e-40
-0.45091429 0.28451431 0.78000003 2.7623236e-40
-0.31107619 0.26773524 0.73400003 2.7694562e-40
-0.30841237 0.26664093 0.73100001 2.7658689e-40
-0.30744001 0.26700574 0.73200005 2.7694562e-40
-0.30604574 0.26700574 0.73200005 2.7658829e-40
-0.30423522 0.26664093 0.73100001 2.7658829e-40
-0.30284286 0.26664093 0.73100001 2.7694702e-40
-0.30062571 0.26591143 0.72900003 3.6878112e-40
-0.29923713 0.26591143 0.72900003 2.7658689e-40
-0.29744002 0.26554668 0.72800004 2.765939e-40
-0.29605335 0.26554668 0.72800004 3.6807767e-40
-0.29466668 0.26554668 0.72800004 3.6915526e-40
-0.29247427 0.26481715 0.72600001 6.4753442e-40
-0.29069048 0.2644524 0.72500002 9.2736251e-40
-0.28851143 0.26372287 0.72300005 1.4794699e-39
-0.28713432 0.26372287 0.72300005 2.0319178e-39
-0.28575715 0.26372287 0.72300005 1.5730991e-39
-0.28398669 0.26335812 0.72200006 1.112488e-39
-0.28261146 0.26335812 0.72200006 9.2666746e-40
-0.27656192 0.25898096 0.71000004 7.4191327e-40
-0.27327144 0.25715715 0.70500004 7.4047273e-40
-0.27192858 0.25715715 0.70500004 7.4083147e-40
-0.27058575 0.25715715 0.70500004 6.4899737e-40
-0.26924288 0.25715715 0.70500004 6.493575e-40
-0.26752001 0.2567924 0.70400006 6.4971764e-40
-0.26617908 0.2567924 0.70400006 7.4262933e-40
-0.26521429 0.25715715 0.70500004 8.341061e-40
-0.26387143 0.25715715 0.70500004 8.3374876e-40
-0.2625286 0.25715715 0.70500004 7.4263213e-40
-0.26118574 0.25715715 0.70500004 7.433496e-40
-0.26058 0.25788668 0.70700002 9.2702199e-40
-0.25959998 0.25825143 0.708 1.1106902e-39
-0.25825143 0.25825143 0.708 1.1114062e-39
-0.25690287 0.25825143 0.708 1.1121265e-39
-0.25627622 0.25898096 0.71000004 1.1121293e-39
-0.25492382 0.25898096 0.71000004 1.1121265e-39
-0.25357142 0.25898096 0.71000004 1.3876316e-39
-0.25221905 0.25898096 0.71000004 1.6631325e-39
-0.25086668 0.25898096 0.71000004 1.3869029e-39
-0.2495143 0.25898096 0.71000004 1.0177673e-39
-0.24746285 0.25825143 0.708 1.1096028e-39
-0.2461143 0.25825143 0.708 1.2003593e-39
-0.24372858 0.25715715 0.70500004 1.1085224e-39
-0.24204193 0.2567924 0.70400006 1.015968e-39
-0.23967525 0.25569808 0.70100003 8.3121942e-40
-0.23800002 0.25533333 0.70000005 6.4718549e-40
-0.23666668 0.25533333 0.70000005 5.5462973e-40
-0.23432477 0.25423905 0.69700003 5.5426539e-40
-0.22798288 0.24876764 0.68200004 4.6242569e-40
-0.22801335 0.25022668 0.68600005 3.7058739e-40
-0.22604571 0.24949716 0.68400002 3.6914966e-40
-0.22441429 0.24913239 0.68300003 3.6914966e-40
-0.22311334 0.24913239 0.68300003 2.7731416e-40
-0.2218124 0.24913239 0.68300003 2.7731276e-40
-0.22051142 0.24913239 0.68300003 2.7731276e-40
-0.21921048 0.24913239 0.68300003 2.7731276e-40
-0.21790953 0.24913239 0.68300003 2.7695543e-40
-0.21629144 0.24876764 0.68200004 2.7695543e-40
-0.21530762 0.24913239 0.68300003 2.7695543e-40
-0.22058667 0.2567924 0.70400006 3.6878953e-40
-0.21924573 0.2567924 0.70400006 2.765953e-40
-0.21759523 0.25642762 0.70300001 2.7659109e-40
-0.21656382 0.2567924 0.70400006 2.7658689e-40
-0.21522288 0.2567924 0.70400006 2.7658969e-40
-0.21388192 0.2567924 0.70400006 1.84757e-40
-0.21254097 0.2567924 0.70400006 1.84757e-40
-0.2115 0.25715715 0.70500004 2.765939e-40
-0.21015716 0.25715715 0.70500004 3.6878812e-40
-0.20940666 0.25788668 0.70700002 2.765939e-40
-0.20806001 0.25788668 0.70700002 2.765939e-40
-0.20671335 0.25788668 0.70700002 2.765939e-40
-0.20565714 0.25825143 0.708 2.7694983e-40
-0.20430857 0.25825143 0.708 2.7694702e-40
-0.20353334 0.25898096 0.71000004 3.6878252e-40
-0.20218095 0.25898096 0.71000004 3.6878252e-40
-0.20082858 0.25898096 0.71000004 3.6878252e-40
-0.1994762 0.25898096 0.71000004 5.5245491e-40
-0.19812383 0.25898096 0.71000004 8.2796e-40
-0.19677144 0.25898096 0.71000004 8.279586e-40
-0.19541906 0.25898096 0.71000004 8.2831873e-40
-0.16940285 0.2308943 0.63300002 9.2015423e-40
-0.16793142 0.23052953 0.63200003 7.3648184e-40
-0.16672763 0.23052953 0.63200003 6.453638e-40
-0.16526191 0.23016478 0.63100004 7.3648184e-40
-0.16406001 0.23016478 0.63100004 9.2015283e-40
-0.16234191 0.22943524 0.62900001 9.2015283e-40
-0.16088763 0.22907047 0.62800002 9.197955e-40
-0.15918286 0.22834095 0.62600005 9.197969e-40
-0.15773809 0.22797619 0.625 9.197969e-40
-0.15654762 0.22797619 0.625 9.197983e-40
-0.15510857 0.22761144 0.62400001 9.2015423e-40
-0.15367334 0.22724667 0.62300003 9.2015283e-40
-0.15248667 0.22724667 0.62300003 9.2015283e-40
-0.15105715 0.22688192 0.62200004 9.2051156e-40
-0.14987239 0.22688192 0.62200004 9.2087029e-40
-0.14868763 0.22688192 0.62200004 9.2051156e-40
-0.14750285 0.22688192 0.62200004 9.197969e-40
-0.14584762 0.22615239 0.62 9.208759e-40
-0.14443333 0.22578762 0.61900002 1.0119939e-39
-0.14325429 0.22578762 0.61900002 1.0123541e-39
-0.14207524 0.22578762 0.61900002 1.1049042e-39
-0.1408962 0.22578762 0.61900002 1.1049014e-39
-0.13971715 0.22578762 0.61900002 1.1970956e-39
-0.13853811 0.22578762 0.61900002 1.1970956e-39
-0.13713714 0.22542287 0.61800003 1.1970956e-39
-0.13618 0.22578762 0.61900002 1.4722448e-39
-0.13500096 0.22578762 0.61900002 1.7473926e-39
-0.1338219 0.22578762 0.61900002 1.5640817e-39
-0.13264287 0.22578762 0.61900002 1.4736783e-39
-0.13146381 0.22578762 0.61900002 1.6562717e-39
-0.13028477 0.22578762 0.61900002 1.931781e-39
-0.12910572 0.22578762 0.61900002 1.9314251e-39
-0.12792666 0.22578762 0.61900002 1.9317838e-39
-0.12674762 0.22578762 0.61900002 2.1154548e-39
-0.12556857 0.22578762 0.61900002 2.3913158e-39
-0.12459048 0.22615239 0.62 2.2076406e-39
-0.12340952 0.22615239 0.62 2.0239766e-39
-0.12222857 0.22615239 0.62 1.9314307e-39
-0.12104762 0.22615239 0.62 1.9314265e-39
-0.11986667 0.22615239 0.62 1.9314237e-39
-0.11868571 0.22615239 0.62 1.9317824e-39
-0.11750476 0.22615239 0.62 1.9314237e-39
-0.11669905 0.22688192 0.62200004 2.0232606e-39
-0.11551429 0.22688192 0.62200004 1.8399497e-39
-0.11451334 0.22724667 0.62300003 1.6566389e-39
-0.11332667 0.22724667 0.62300003 1.84067e-39
-0.11232001 0.22761144 0.62400001 2.0246997e-39
-0.11113143 0.22761144 0.62400001 2.1165352e-39
-0.10994286 0.22761144 0.62400001 2.2083679e-39
-0.10892857 0.22797619 0.625 2.2087238e-39
-0.10773809 0.22797619 0.625 2.3009181e-39
-0.1067181 0.22834095 0.62600005 2.4853079e-39
-0.10552572 0.22834095 0.62600005 2.6689803e-39
-0.10433334 0.22834095 0.62600005 2.4853107e-39
-0.10314097 0.22834095 0.62600005 2.3938298e-39
-0.10194857 0.22834095 0.62600005 2.5774979e-39
-0.1010781 0.22907047 0.62800002 2.8530072e-39
-0.09988191 0.22907047 0.62800002 2.8530114e-39
-0.098842859 0.22943524 0.62900001 2.8530114e-39
-0.097644761 0.22943524 0.62900001 2.8530114e-39
-0.096753336 0.23016478 0.63100004 2.8530114e-39
-0.095702864 0.23052953 0.63200003 2.8530114e-39
-0.094947629 0.23162383 0.63500005 2.8530114e-39
-0.09388572 0.23198858 0.63600004 2.8530114e-39
-0.092965715 0.2327181 0.63800001 2.7611759e-39
-0.091894291 0.23308288 0.63900006 2.7604585e-39
-0.090819053 0.23344763 0.64000005 2.7597424e-39
-0.089879997 0.23417714 0.64200002 2.8515807e-39
-0.088933334 0.23490669 0.64400005 2.9434148e-39
-0.087842867 0.23527144 0.64500004 2.5760728e-39
-0.086882859 0.23600096 0.64700001 2.3005649e-39
-0.085782856 0.23636572 0.648 2.2083707e-39
-0.084809527 0.23709525 0.65000004 2.2083735e-39
-0.083957151 0.23818953 0.65300006 2.1161835e-39
-0.083220005 0.23964857 0.65700001 2.1158234e-39
-0.082093336 0.24001335 0.65800005 2.0247053e-39
-0.081208572 0.24110763 0.66100001 1.9335845e-39
-0.080191433 0.24183716 0.66300005 1.9335817e-39
-0.079166666 0.24256667 0.66500002 1.9335873e-39
-0.078368574 0.24402574 0.66900003 2.0254298e-39
-0.077209525 0.24439049 0.67000002 2.2090952e-39
-0.076046668 0.24475525 0.671 2.392762e-39
-0.075102858 0.24584952 0.67400002 2.5764316e-39
-0.073819049 0.24584952 0.67400002 2.3002076e-39
-0.072535239 0.24584952 0.67400002 2.0250599e-39
-0.073365718 0.25314477 0.69400001 2.2094497e-39
-0.072147623 0.25350955 0.69500005 2.3927606e-39
-0.071027622 0.25423905 0.69700003 2.0250584e-39
-0.069799997 0.25460383 0.69800001 1.7484716e-39
-0.068470478 0.25460383 0.69800001 1.2900087e-39
-0.067140952 0.25460383 0.69800001 8.3084247e-40
-0.061562862 0.27101809 0.74300003 1.1088839e-39
-0.060147621 0.27101809 0.74300003 1.1096112e-39
-0.058732383 0.27101809 0.74300003 1.5709523e-39
-0.057471432 0.27174765 0.74500006 2.0337199e-39
-0.056052383 0.27174765 0.74500006 2.3110242e-39
-0.054780003 0.27247715 0.74700004 2.4961245e-39
-0.053214289 0.27174765 0.74500006 1.9408026e-39
-0.051934287 0.27247715 0.74700004 1.3869225e-39
-0.050511431 0.27247715 0.74700004 1.0203008e-39
-0.049154289 0.2728419 0.74800003 7.4551601e-40
-0.047729526 0.2728419 0.74800003 1.2990457e-39
-0.046552382 0.27430096 0.75200003 1.9444039e-39
-0.045180004 0.27466571 0.75300002 1.9436864e-39
-0.043861907 0.27539524 0.75500005 1.9429676e-39
-0.042423811 0.27539524 0.75500005 1.5738319e-39
-0.041148573 0.27648953 0.75800002 1.2957919e-39
-0.039861906 0.27758381 0.76100004 1.0199043e-39
-0.038513333 0.27831334 0.76300001 8.3625288e-40
-0.037254285 0.2797724 0.76700002 1.020661e-39
-0.035793334 0.2797724 0.76700002 1.2965192e-39
-0.034377143 0.28013715 0.76800001 1.2046767e-39
-0.033 0.28086665 0.77000004 1.1128482e-39
-0.031615239 0.28159618 0.77200001 1.3887218e-39
-0.030183813 0.28196096 0.77300006 1.6645912e-39
-0.028785717 0.2826905 0.77500004 1.8493426e-39
-0.027309524 0.2826905 0.77500004 2.0344514e-39
-0.025833335 0.2826905 0.77500004 2.0348129e-39
-0.024420001 0.28342 0.77700001 2.1273687e-39
-0.022940001 0.28342 0.77700001 2.3114012e-39
-0.02146 0.28342 0.77700001 2.4954323e-39
-0.02003143 0.28414956 0.77900004 2.7720178e-39
-0.018571429 0.28451431 0.78000003 3.0486061e-39
-0.017085714 0.28451431 0.78000003 3.3251958e-39
-0.015600001 0.28451431 0.78000003 3.6017799e-39
-0.014114286 0.28451431 0.78000003 3.6946944e-39
-0.012660953 0.28524381 0.78200006 3.8783654e-39
-0.011142857 0.28451431 0.78000003 3.8783654e-39
-0.0096571427 0.28451431 0.78000003 3.8787227e-39
-0.008171428 0.28451431 0.78000003 3.7865285e-39
-0.0067199999 0.28597334 0.78400004 3.7865243e-39
-0.005226667 0.28597334 0.78400004 3.6028505e-39
-0.0037428571 0.28670284 0.78600001 3.5110206e-39
-0.0022514286 0.2874324 0.78800005 3.6939797e-39
-0.0007504762 0.2874324 0.78800005 3.9691275e-39
0.00075333333 0.28852665 0.79100001 4.3361107e-39
0.0022714285 0.28998572 0.79500002 4.703101e-39
0.0037952382 0.29071525 0.79700005 5.0743974e-39
0.0053133336 0.29071525 0.79700005 5.5375322e-39
0.0068571432 0.29180953 0.80000001 5.8144862e-39
0.008464762 0.29472762 0.80800003 6.1832883e-39
0.01000381 0.29472762 0.80800003 7.2010374e-39
0.0116 0.29618666 0.81200004 8.3109807e-39
0.013146668 0.29618666 0.81200004 9.7886247e-39
0.014693334 0.29618666 0.81200004 1.1266246e-38
0.23688859 0.3476181 0.95300007 4.6025928e-40
0.23795238 0.34652382 0.95000005 4.6025928e-40
0.23850001 0.34470001 0.94500005 3.6842379e-40
0.23953715 0.34360573 0.94200003 3.6842098e-40
0.24081907 0.3428762 0.94000006 3.6841958e-40
0.24183525 0.34178191 0.93700004 4.6026068e-40
0.24310002 0.34105238 0.93500006 4.6062502e-40
0.24488097 0.34105238 0.93500006 5.5425979e-40
0.24587047 0.3399581 0.93200004 1.0141617e-39
0.24764572 0.3399581 0.93200004 1.3836673e-39
0.24942094 0.3399581 0.93200004 2.3059796e-39
0.25065717 0.3392286 0.93000007 3.229361e-39
0.2516143 0.33813429 0.92700005 3.8754436e-39
-0.45877999 0.29003334 0.79100001 2.7623096e-40
-0.31022859 0.26840001 0.73200005 3.6842239e-40
-0.30883431 0.26840001 0.73200005 2.7658689e-40
-0.30744001 0.26840001 0.73200005 2.7658689e-40
-0.30604574 0.26840001 0.73200005 2.7658829e-40
-0.30465147 0.26840001 0.73200005 2.7658829e-40
-0.30284286 0.26803333 0.73100001 2.7694702e-40
-0.30062571 0.26730001 0.72900003 3.6878112e-40
-0.29882666 0.26693335 0.72800004 3.6842239e-40
-0.29744002 0.26693335 0.72800004 3.6842659e-40
-0.29605335 0.26693335 0.72800004 3.6843219e-40
-0.29385716 0.26620001 0.72600001 3.6879653e-40
-0.29126573 0.2651 0.72300005 6.4753722e-40
-0.28988859 0.2651 0.72300005 1.0188393e-39
-0.28851143 0.2651 0.72300005 1.7542547e-39
-0.28713432 0.2651 0.72300005 2.4914554e-39
-0.28575715 0.2651 0.72300005 1.7567771e-39
-0.28398669 0.26473337 0.72200006 1.1124894e-39
-0.28261146 0.26473337 0.72200006 9.2594439e-40
-0.2746143 0.25850001 0.70500004 7.4262793e-40
-0.27327144 0.25850001 0.70500004 6.482785e-40
-0.27192858 0.25850001 0.70500004 6.4863724e-40
-0.2698181 0.25776666 0.70300001 6.493547e-40
-0.26886097 0.25813335 0.70400006 7.4155173e-40
-0.26714 0.25776666 0.70300001 8.341075e-40
-0.26580095 0.25776666 0.70300001 9.2594439e-40
-0.2648381 0.25813335 0.70400006 1.0181386e-39
-0.26349717 0.25813335 0.70400006 1.110693e-39
-0.26215619 0.25813335 0.70400006 9.2809819e-40
-0.26081526 0.25813335 0.70400006 8.3590536e-40
-0.25984287 0.25850001 0.70500004 1.0195778e-39
-0.25850001 0.25850001 0.70500004 1.2950828e-39
-0.25788668 0.25923333 0.70700002 1.2954402e-39
-0.25654 0.25923333 0.70700002 1.2958003e-39
-0.25555429 0.25959998 0.708 1.2950842e-39
-0.25420573 0.25959998 0.708 1.2958017e-39
-0.25285715 0.25959998 0.708 1.5709509e-39
-0.25150859 0.25959998 0.708 1.938646e-39
-0.25016001 0.25959998 0.708 1.4787454e-39
-0.24881144 0.25959998 0.708 1.0181288e-39
-0.24711333 0.25923333 0.70700002 1.1099615e-39
-0.24507144 0.25850001 0.70500004 1.2929122e-39
-0.24338287 0.25813335 0.70400006 1.2010753e-39
-0.2416981 0.25776666 0.70300001 1.1081594e-39
-0.23967525 0.25703335 0.70100003 7.3973845e-40
-0.23834002 0.25703335 0.70100003 4.6387323e-40
-0.22922859 0.24859999 0.67800003 5.5499126e-40
-0.22793716 0.24859999 0.67800003 6.4646242e-40
-0.22698 0.24896668 0.67900002 5.5462132e-40
-0.22668383 0.25006667 0.68200004 4.6242429e-40
-0.22538477 0.25006667 0.68200004 4.6098656e-40
-0.22408572 0.25006667 0.68200004 4.6062642e-40
-0.22278668 0.25006667 0.68200004 3.6879093e-40
-0.22148763 0.25006667 0.68200004 2.7695543e-40
-0.22018859 0.25006667 0.68200004 2.7731276e-40
-0.21888953 0.25006667 0.68200004 3.6878953e-40
-0.2175905 0.25006667 0.68200004 3.6878953e-40
-0.21629144 0.25006667 0.68200004 3.6878953e-40
-0.2149924 0.25006667 0.68200004 3.6878953e-40
-0.22058667 0.25813335 0.70400006 3.6878812e-40
-0.21924573 0.25813335 0.70400006 3.6878532e-40
-0.21759523 0.25776666 0.70300001 3.6842659e-40
-0.21625619 0.25776666 0.70300001 2.7659109e-40
-0.21522288 0.25813335 0.70400006 2.7659109e-40
-0.21388192 0.25813335 0.70400006 2.7659249e-40
-0.21254097 0.25813335 0.70400006 2.7659249e-40
-0.21120003 0.25813335 0.70400006 2.7659249e-40
-0.21015716 0.25850001 0.70500004 3.6842939e-40
-0.20881431 0.25850001 0.70500004 3.6842939e-40
-0.20747145 0.25850001 0.70500004 3.6842939e-40
-0.20671335 0.25923333 0.70700002 3.6842939e-40
-0.20536667 0.25923333 0.70700002 3.6878532e-40
-0.20402001 0.25923333 0.70700002 3.6878252e-40
-0.20296 0.25959998 0.708 3.6878252e-40
-0.20161143 0.25959998 0.708 3.6842519e-40
-0.20026286 0.25959998 0.708 3.6842659e-40
-0.1994762 0.26033333 0.71000004 5.5209898e-40
-0.19812383 0.26033333 0.71000004 8.2760267e-40
-0.19677144 0.26033333 0.71000004 8.279586e-40
-0.19569428 0.26070002 0.71100003 8.2796e-40
-0.19434001 0.26070002 0.71100003 8.279614e-40
-0.1708781 0.23246667 0.634 9.2015283e-40
-0.16940285 0.2321 0.63300002 9.2015283e-40
-0.16819715 0.2321 0.63300002 9.2015283e-40
-0.16672763 0.23173334 0.63200003 9.2015283e-40
-0.16552381 0.23173334 0.63200003 9.2015283e-40
-0.16406001 0.23136668 0.63100004 9.2015283e-40
-0.16234191 0.23063333 0.62900001 9.2015283e-40
-0.16114381 0.23063333 0.62900001 9.197955e-40
-0.15943715 0.22990002 0.62700003 9.197969e-40
-0.15799049 0.22953336 0.62600005 9.197955e-40
-0.15654762 0.22916667 0.625 9.2015423e-40
-0.15510857 0.2288 0.62400001 9.2015283e-40
-0.15391999 0.2288 0.62400001 9.2015283e-40
-0.15248667 0.22843334 0.62300003 9.2015283e-40
-0.1513 0.22843334 0.62300003 9.2015283e-40
-0.15011333 0.22843334 0.62300003 9.2051296e-40
-0.14868763 0.22806668 0.62200004 8.2832013e-40
-0.14702858 0.22733332 0.62 8.279628e-40
-0.14584762 0.22733332 0.62 9.208759e-40
-0.14443333 0.22696666 0.61900002 1.1041868e-39
-0.14325429 0.22696666 0.61900002 1.1045441e-39
-0.14207524 0.22696666 0.61900002 1.1045427e-39
-0.1408962 0.22696666 0.61900002 1.1049014e-39
-0.13971715 0.22696666 0.61900002 1.1049028e-39
-0.13853811 0.22696666 0.61900002 1.1049042e-39
-0.13735905 0.22696666 0.61900002 1.1045469e-39
-0.13618 0.22696666 0.61900002 1.3800562e-39
-0.13500096 0.22696666 0.61900002 1.6555585e-39
-0.1338219 0.22696666 0.61900002 1.5644376e-39
-0.13264287 0.22696666 0.61900002 1.564439e-39
-0.13146381 0.22696666 0.61900002 1.7481128e-39
-0.13028477 0.22696666 0.61900002 2.0232606e-39
-0.12910572 0.22696666 0.61900002 1.9314265e-39
-0.12792666 0.22696666 0.61900002 1.9317838e-39
-0.12674762 0.22696666 0.61900002 2.1154534e-39
-0.12556857 0.22696666 0.61900002 2.3909585e-39
-0.12438953 0.22696666 0.61900002 2.1150905e-39
-0.12321047 0.22696666 0.61900002 1.9314237e-39
-0.12203144 0.22696666 0.61900002 1.9314265e-39
-0.12104762 0.22733332 0.62 1.9314251e-39
-0.11986667 0.22733332 0.62 1.9314237e-39
-0.11868571 0.22733332 0.62 2.0236179e-39
-0.11788382 0.22806668 0.62200004 1.931065e-39
-0.11669905 0.22806668 0.62200004 1.8392295e-39
-0.11551429 0.22806668 0.62200004 1.6559186e-39
-0.11451334 0.22843334 0.62300003 1.5644418e-39
-0.11350857 0.2288 0.62400001 1.8410259e-39
-0.11214 0.22843334 0.62300003 2.2080092e-39
-0.11113143 0.2288 0.62400001 2.2998447e-39
-0.10994286 0.2288 0.62400001 2.3916802e-39
-0.10875428 0.2288 0.62400001 2.116531e-39
-0.10773809 0.22916667 0.625 1.93286e-39
-0.10654762 0.22916667 0.625 2.2101616e-39
-0.10535714 0.22916667 0.625 2.4849506e-39
-0.10433334 0.22953336 0.62600005 2.4845933e-39
-0.10314097 0.22953336 0.62600005 2.4849492e-39
-0.10194857 0.22953336 0.62600005 2.5774993e-39
-0.10091715 0.22990002 0.62700003 2.7611731e-39
-0.099722862 0.22990002 0.62700003 2.7608158e-39
-0.098685719 0.23026668 0.62800002 2.8526513e-39
-0.097644761 0.23063333 0.62900001 2.8530114e-39
-0.096446671 0.23063333 0.62900001 2.8530114e-39
-0.095702864 0.23173334 0.63200003 2.8530128e-39
-0.094499052 0.23173334 0.63200003 2.8526527e-39
-0.09388572 0.23320001 0.63600004 2.7608158e-39
-0.092965715 0.23393333 0.63800001 2.7604585e-39
-0.091894291 0.23430003 0.63900006 2.6682643e-39
-0.090819053 0.23466669 0.64000005 2.6679097e-39
-0.089879997 0.23540001 0.64200002 2.8519423e-39
-0.088933334 0.23613335 0.64400005 3.1270872e-39
-0.087842867 0.23650001 0.64500004 2.7597438e-39
-0.086748578 0.23686667 0.64600003 2.4838772e-39
-0.085782856 0.2376 0.648 2.3920417e-39
-0.084809527 0.23833334 0.65000004 2.3920431e-39
-0.083957151 0.23943336 0.65300006 2.3916858e-39
-0.083220005 0.24090001 0.65700001 2.3913312e-39
-0.082093336 0.24126668 0.65800005 2.115829e-39
-0.081208572 0.24236667 0.66100001 1.9335873e-39
-0.080070481 0.24273336 0.66200006 1.9335817e-39
-0.078928575 0.24310002 0.66300005 1.9339446e-39
-0.07860285 0.24603333 0.671 2.0265004e-39
-0.077209525 0.24566668 0.67000002 2.1176156e-39
-0.076159999 0.24640003 0.67200005 2.3927606e-39
-0.075102858 0.24713334 0.67400002 2.7597424e-39
-0.073819049 0.24713334 0.67400002 2.3002062e-39
-0.074149527 0.25263333 0.68900001 1.933223e-39
-0.073365718 0.25446665 0.69400001 1.9339404e-39
-0.072043814 0.25446665 0.69400001 1.933223e-39
-0.071129531 0.25593334 0.69800001 1.7491932e-39
-0.070000008 0.25666669 0.70000005 1.5655222e-39
-0.068666674 0.25666669 0.70000005 1.2900171e-39
-0.067333341 0.25666669 0.70000005 1.1074364e-39
-0.062893331 0.27206668 0.74200004 1.2925577e-39
-0.061480001 0.27206668 0.74200004 1.4755126e-39
-0.060147621 0.27243334 0.74300003 1.6617046e-39
-0.058732383 0.27243334 0.74300003 2.0322849e-39
-0.057317145 0.27243334 0.74300003 2.4936162e-39
-0.056052383 0.27316669 0.74500006 2.0355149e-39
-0.054633338 0.27316669 0.74500006 1.5731061e-39
-0.053214289 0.27316669 0.74500006 1.3865624e-39
-0.051795244 0.27316669 0.74500006 1.2028942e-39
-0.050376195 0.27316669 0.74500006 1.2061242e-39
-0.049088575 0.2739 0.74700004 1.2997618e-39
-0.047729526 0.27426666 0.74800003 1.7607413e-39
-0.046552382 0.27573335 0.75200003 2.3113886e-39
-0.045180004 0.27610001 0.75300002 1.7596525e-39
-0.043861907 0.27683336 0.75500005 1.2983212e-39
-0.042480003 0.27720001 0.75600004 1.2965276e-39
-0.041148573 0.27793336 0.75800002 1.3883491e-39
-0.039861906 0.27903333 0.76100004 1.11283e-39
-0.038513333 0.27976668 0.76300001 9.2881285e-40
-0.037157144 0.28050002 0.76500005 1.2043334e-39
-0.035793334 0.28123334 0.76700002 1.479837e-39
-0.034377143 0.2816 0.76800001 1.4801944e-39
-0.033 0.28233334 0.77000004 1.4812748e-39
-0.031656191 0.28343335 0.77300006 1.7582204e-39
-0.030183813 0.28343335 0.77300006 2.0344471e-39
-0.028785717 0.28416666 0.77500004 2.2191985e-39
-0.027309524 0.28416666 0.77500004 2.4035898e-39
-0.025833335 0.28416666 0.77500004 2.4046702e-39
-0.024357144 0.28416666 0.77500004 2.4050303e-39
-0.022880953 0.28416666 0.77500004 2.6812571e-39
-0.02146 0.28489998 0.77700001 3.0486019e-39
-0.01998 0.28489998 0.77700001 3.2322743e-39
-0.0185 0.28489998 0.77700001 3.5088598e-39
-0.017063811 0.28563333 0.77900004 3.6017757e-39
-0.015580001 0.28563333 0.77900004 3.6936126e-39
-0.01406 0.28489998 0.77700001 3.6946902e-39
-0.012612382 0.28563333 0.77900004 3.7861683e-39
-0.011128572 0.28563333 0.77900004 3.6943342e-39
-0.0096447626 0.28563333 0.77900004 3.6024959e-39
-0.0081609525 0.28563333 0.77900004 3.4188235e-39
-0.0067028576 0.28673336 0.78200006 3.3262678e-39
-0.0052133338 0.28673336 0.78200006 3.1422352e-39
-0.0037333334 0.28746668 0.78400004 3.0500438e-39
-0.0022514286 0.28893334 0.78800005 3.1415234e-39
-0.0007504762 0.28893334 0.78800005 3.3251972e-39
0.00075333333 0.29003334 0.79100001 3.6946958e-39
0.0022714285 0.2915 0.79500002 4.1520838e-39
0.0037952382 0.29223335 0.79700005 3.6025113e-39
0.0053200005 0.29260001 0.79800004 3.1426206e-39
0.0068571432 0.29333332 0.80000001 2.8664023e-39
0.00844381 0.29553336 0.80600005 2.5912657e-39
0.01000381 0.29626667 0.80800003 2.8675023e-39
0.0116 0.29773337 0.81200004 3.1483982e-39
0.013146668 0.29773337 0.81200004 5.7255402e-39
0.014693334 0.29773337 0.81200004 8.3963268e-39
0.016279999 0.29846668 0.81400001 1.0424625e-38
0.017830476 0.29846668 0.81400001 1.245076e-38
0.23614286 0.34833336 0.95000005 5.5245491e-40
0.23795238 0.34833336 0.95000005 5.5209478e-40
0.23850001 0.34650001 0.94500005 4.6025928e-40
0.23953715 0.34540001 0.94200003 4.6025788e-40
0.24133144 0.34540001 0.94200003 4.5989775e-40
0.24183525 0.34356669 0.93700004 4.6026068e-40
0.24310002 0.34283337 0.93500006 4.6062362e-40
0.24488097 0.34283337 0.93500006 4.6134669e-40
0.24587047 0.34173334 0.93200004 7.3829371e-40
0.24764572 0.34173334 0.93200004 1.1074406e-39
0.24942094 0.34173334 0.93200004 2.0297542e-39
0.25065717 0.34100002 0.93000007 3.0446138e-39
0.2516143 0.33990002 0.92700005 3.6910552e-39
0.25146666 0.33733335 0.92000002 4.336419e-39
-0.31162286 0.26979432 0.73200005 3.6842239e-40
-0.31022859 0.26979432 0.73200005 2.7658689e-40
-0.30883431 0.26979432 0.73200005 2.7658689e-40
-0.30744001 0.26979432 0.73200005 2.7658689e-40
-0.30562761 0.26942572 0.73100001 3.6842379e-40
-0.30423522 0.26942572 0.73100001 4.6061802e-40
-0.30201429 0.26868859 0.72900003 3.6878252e-40
-0.30062571 0.26868859 0.72900003 3.6878252e-40
-0.29882666 0.26832002 0.72800004 2.7658829e-40
-0.29744002 0.26832002 0.72800004 2.7658969e-40
